ncols         347
nrows         50
xllcorner     36.0680122642
yllcorner     0.838725728453
cellsize      0.0083333333333333
NODATA_value  -9999
-9999 -9999 -9999 -9999 -9999 -9999 -9999 -9999 -9999 -9999 -9999 -9999 -9999 -9999 -9999 -9999 -9999 -9999 -9999 -9999 -9999 -9999 -9999 -9999 -9999 -9999 -9999 -9999 -9999 -9999 -9999 -9999 -9999 -9999 -9999 -9999 -9999 -9999 -9999 -9999 -9999 -9999 -9999 -9999 -9999 -9999 -9999 -9999 -9999 -9999 -9999 -9999 -9999 -9999 -9999 -9999 -9999 -9999 -9999 -9999 -9999 -9999 -9999 -9999 -9999 -9999 -9999 -9999 -9999 -9999 -9999 -9999 -9999 -9999 -9999 -9999 -9999 -9999 -9999 -9999 -9999 -9999 -9999 -9999 -9999 -9999 -9999 -9999 -9999 -9999 -9999 -9999 -9999 -9999 -9999 -9999 -9999 -9999 -9999 -9999 -9999 -9999 -9999 -9999 -9999 -9999 -9999 -9999 -9999 -9999 -9999 -9999 -9999 -9999 -9999 -9999 -9999 -9999 -9999 -9999 -9999 -9999 -9999 -9999 886 893 912 968 1080 1228 1188 1145 1167 1232 1297 1394 1485 1539 1792 2057 2175 1956 2035 2261 2043 1736 1442 1474 1762 2044 2175 2022 1679 1530 1453 1328 1186 1064 933 907 958 888 864 839 819 811 802 797 788 789 779 780 778 770 753 750 750 753 760 760 755 754 749 745 745 730 720 740 727 716 723 740 738 739 724 714 704 716 715 705 717 711 716 666 685 636 616 610 761 769 758 756 759 760 762 756 757 758 756 756 749 731 730 731 704 657 647 678 696 727 731 726 724 730 718 699 690 682 669 618 642 610 546 532 515 505 495 488 488 483 477 474 467 464 452 448 441 440 438 428 422 425 420 417 408 405 402 402 396 395 390 388 382 380 376 376 371 364 364 363 363 361 -9999 -9999 -9999 -9999 -9999 -9999 -9999 -9999 -9999 -9999 -9999 -9999 -9999 -9999 -9999 -9999 -9999 -9999 -9999 -9999 -9999 -9999 -9999 -9999 -9999 -9999 -9999 -9999 -9999 -9999 -9999 -9999 -9999 -9999 -9999 -9999 -9999 -9999 -9999 -9999 -9999 -9999 -9999 -9999 -9999 -9999 -9999 -9999 -9999 -9999 -9999 -9999 -9999 -9999 -9999 -9999 -9999 -9999 -9999 -9999 -9999 -9999 -9999 -9999 -9999
-9999 -9999 -9999 -9999 -9999 -9999 -9999 -9999 -9999 -9999 -9999 -9999 -9999 -9999 -9999 -9999 -9999 -9999 -9999 -9999 -9999 -9999 -9999 -9999 -9999 -9999 -9999 -9999 -9999 -9999 -9999 -9999 -9999 -9999 -9999 -9999 -9999 -9999 -9999 -9999 -9999 -9999 -9999 -9999 -9999 -9999 -9999 -9999 -9999 -9999 -9999 -9999 -9999 -9999 -9999 -9999 -9999 -9999 -9999 -9999 -9999 -9999 -9999 -9999 -9999 -9999 -9999 -9999 -9999 -9999 -9999 -9999 -9999 -9999 -9999 -9999 -9999 -9999 -9999 -9999 -9999 -9999 -9999 -9999 -9999 -9999 -9999 -9999 -9999 -9999 -9999 -9999 -9999 -9999 -9999 -9999 -9999 -9999 -9999 -9999 -9999 -9999 -9999 -9999 -9999 -9999 -9999 -9999 -9999 -9999 -9999 -9999 -9999 -9999 -9999 -9999 -9999 -9999 -9999 -9999 -9999 -9999 -9999 -9999 899 904 942 1021 1041 1193 1112 1177 1215 1309 1363 1376 1570 1587 1907 1967 2097 1993 1951 2165 2066 1936 1479 1460 1641 1931 2143 2063 1723 1569 1223 1162 1139 951 909 887 867 854 839 832 822 814 804 799 802 801 795 792 781 771 762 755 760 763 766 763 755 748 741 744 731 725 737 746 732 724 725 737 747 742 728 721 714 723 723 714 719 715 708 744 731 621 614 689 781 774 769 760 765 777 780 775 770 769 780 763 752 743 743 731 683 664 650 678 727 730 726 722 719 735 712 701 695 684 672 593 582 556 542 529 518 508 494 492 488 482 483 475 466 461 456 450 447 442 434 431 432 427 420 421 415 413 410 403 400 397 392 389 387 379 379 375 372 370 366 366 363 362 363 -9999 -9999 -9999 -9999 -9999 -9999 -9999 -9999 -9999 -9999 -9999 -9999 -9999 -9999 -9999 -9999 -9999 -9999 -9999 -9999 -9999 -9999 -9999 -9999 -9999 -9999 -9999 -9999 -9999 -9999 -9999 -9999 -9999 -9999 -9999 -9999 -9999 -9999 -9999 -9999 -9999 -9999 -9999 -9999 -9999 -9999 -9999 -9999 -9999 -9999 -9999 -9999 -9999 -9999 -9999 -9999 -9999 -9999 -9999 -9999 -9999 -9999 -9999 -9999
-9999 -9999 -9999 -9999 -9999 -9999 -9999 -9999 -9999 -9999 -9999 -9999 -9999 -9999 -9999 -9999 -9999 -9999 -9999 -9999 -9999 -9999 -9999 -9999 -9999 -9999 -9999 -9999 -9999 -9999 -9999 -9999 -9999 -9999 -9999 -9999 -9999 -9999 -9999 -9999 -9999 -9999 -9999 -9999 -9999 -9999 -9999 -9999 -9999 -9999 -9999 -9999 -9999 -9999 -9999 -9999 -9999 -9999 -9999 -9999 -9999 -9999 -9999 -9999 -9999 -9999 -9999 -9999 -9999 -9999 -9999 -9999 -9999 -9999 -9999 -9999 -9999 -9999 -9999 -9999 -9999 -9999 -9999 -9999 -9999 -9999 -9999 -9999 -9999 -9999 -9999 -9999 -9999 -9999 -9999 -9999 -9999 -9999 -9999 -9999 -9999 -9999 -9999 -9999 -9999 -9999 -9999 -9999 -9999 -9999 -9999 -9999 -9999 -9999 -9999 -9999 -9999 -9999 -9999 -9999 -9999 -9999 -9999 -9999 898 948 927 980 1061 1098 1162 1232 1188 1246 1303 1335 1438 1552 1780 1900 2080 1924 1726 2084 2052 1821 1480 1373 1497 1818 1849 1879 1836 1305 1168 1174 1008 923 896 883 868 848 846 836 829 815 805 808 800 792 786 775 773 768 761 767 778 777 772 766 756 751 744 741 740 739 749 754 740 734 728 740 751 739 731 724 726 728 732 729 730 732 736 744 746 617 720 785 791 785 775 767 770 777 785 789 789 815 805 773 759 753 746 736 681 666 658 725 723 725 717 716 711 725 705 697 693 684 668 584 592 582 551 532 517 507 497 500 492 490 478 473 471 464 456 447 443 448 439 438 432 426 427 424 418 414 412 408 406 401 396 390 389 386 382 379 372 373 368 369 368 366 367 362 -9999 -9999 -9999 -9999 -9999 -9999 -9999 -9999 -9999 -9999 -9999 -9999 -9999 -9999 -9999 -9999 -9999 -9999 -9999 -9999 -9999 -9999 -9999 -9999 -9999 -9999 -9999 -9999 -9999 -9999 -9999 -9999 -9999 -9999 -9999 -9999 -9999 -9999 -9999 -9999 -9999 -9999 -9999 -9999 -9999 -9999 -9999 -9999 -9999 -9999 -9999 -9999 -9999 -9999 -9999 -9999 -9999 -9999 -9999 -9999 -9999 -9999 -9999
-9999 -9999 -9999 -9999 -9999 -9999 -9999 -9999 -9999 -9999 -9999 -9999 -9999 -9999 -9999 -9999 -9999 -9999 -9999 -9999 -9999 -9999 -9999 -9999 -9999 -9999 -9999 -9999 -9999 -9999 -9999 -9999 -9999 -9999 -9999 -9999 -9999 -9999 -9999 -9999 -9999 -9999 -9999 -9999 -9999 -9999 -9999 -9999 -9999 -9999 -9999 -9999 -9999 -9999 -9999 -9999 -9999 -9999 -9999 -9999 -9999 -9999 -9999 -9999 -9999 -9999 -9999 -9999 -9999 -9999 -9999 -9999 -9999 -9999 -9999 -9999 -9999 -9999 -9999 -9999 -9999 -9999 -9999 -9999 -9999 -9999 -9999 -9999 -9999 -9999 -9999 -9999 -9999 -9999 -9999 -9999 -9999 -9999 -9999 -9999 -9999 -9999 -9999 -9999 -9999 -9999 -9999 -9999 -9999 -9999 -9999 -9999 -9999 -9999 -9999 -9999 -9999 -9999 -9999 -9999 -9999 -9999 -9999 -9999 -9999 943 951 996 1112 1230 1429 1298 1281 1308 1326 1351 1724 1651 1715 1904 1768 2007 1596 1901 2036 1925 1570 1368 1434 1617 1770 1826 1841 1298 1157 1119 1141 1003 938 907 885 880 861 850 832 821 822 813 809 797 790 782 776 769 780 782 787 783 771 762 761 757 752 741 742 737 750 758 751 742 736 748 741 740 729 723 710 708 717 732 724 733 760 775 741 626 659 788 790 793 782 771 771 777 781 794 803 819 794 776 764 753 745 695 678 673 661 704 718 715 714 709 705 691 688 684 678 680 660 630 636 631 624 531 514 510 505 504 504 494 483 473 470 460 458 463 454 448 446 437 430 433 429 421 422 418 410 413 408 403 398 397 393 387 383 378 377 376 374 370 367 368 368 366 364 -9999 -9999 -9999 -9999 -9999 -9999 -9999 -9999 -9999 -9999 -9999 -9999 -9999 -9999 -9999 -9999 -9999 -9999 -9999 -9999 -9999 -9999 -9999 -9999 -9999 -9999 -9999 -9999 -9999 -9999 -9999 -9999 -9999 -9999 -9999 -9999 -9999 -9999 -9999 -9999 -9999 -9999 -9999 -9999 -9999 -9999 -9999 -9999 -9999 -9999 -9999 -9999 -9999 -9999 -9999 -9999 -9999 -9999 -9999 -9999 -9999 -9999
-9999 -9999 -9999 -9999 -9999 -9999 -9999 -9999 -9999 -9999 -9999 -9999 -9999 -9999 -9999 -9999 -9999 -9999 -9999 -9999 -9999 -9999 -9999 -9999 -9999 -9999 -9999 -9999 -9999 -9999 -9999 -9999 -9999 -9999 -9999 -9999 -9999 -9999 -9999 -9999 -9999 -9999 -9999 -9999 -9999 -9999 -9999 -9999 -9999 -9999 -9999 -9999 -9999 -9999 -9999 -9999 -9999 -9999 -9999 -9999 -9999 -9999 -9999 -9999 -9999 -9999 -9999 -9999 -9999 -9999 -9999 -9999 -9999 -9999 -9999 -9999 -9999 -9999 -9999 -9999 -9999 -9999 -9999 -9999 -9999 -9999 -9999 -9999 -9999 -9999 -9999 -9999 -9999 -9999 -9999 -9999 -9999 -9999 -9999 -9999 -9999 -9999 -9999 -9999 -9999 -9999 -9999 -9999 -9999 -9999 -9999 -9999 -9999 -9999 -9999 -9999 -9999 -9999 -9999 -9999 -9999 -9999 -9999 -9999 -9999 960 974 1061 1181 1240 1544 1350 1313 1347 1409 1514 1820 1546 1573 1893 1589 1817 1620 1659 2043 1822 1627 1363 1333 1447 1515 1665 1785 1683 1410 1377 1159 1034 1000 991 901 876 864 850 834 829 826 822 809 797 793 791 781 778 790 786 796 784 771 765 759 755 746 745 749 747 759 767 750 746 748 753 730 734 717 714 720 699 716 728 716 727 748 740 748 628 644 769 773 780 778 773 773 775 777 791 815 829 799 782 765 754 747 704 679 679 670 676 689 713 720 712 686 662 651 649 632 615 656 646 642 596 539 521 515 511 516 509 504 492 479 476 473 466 459 464 456 459 450 436 434 436 430 427 426 420 416 416 410 406 402 396 395 389 384 382 380 376 373 374 374 373 371 366 367 363 -9999 -9999 -9999 -9999 -9999 -9999 -9999 -9999 -9999 -9999 -9999 -9999 -9999 -9999 -9999 -9999 -9999 -9999 -9999 -9999 -9999 -9999 -9999 -9999 -9999 -9999 -9999 -9999 -9999 -9999 -9999 -9999 -9999 -9999 -9999 -9999 -9999 -9999 -9999 -9999 -9999 -9999 -9999 -9999 -9999 -9999 -9999 -9999 -9999 -9999 -9999 -9999 -9999 -9999 -9999 -9999 -9999 -9999 -9999 -9999 -9999
-9999 -9999 -9999 -9999 -9999 -9999 -9999 -9999 -9999 -9999 -9999 -9999 -9999 -9999 -9999 -9999 -9999 -9999 -9999 -9999 -9999 -9999 -9999 -9999 -9999 -9999 -9999 -9999 -9999 -9999 -9999 -9999 -9999 -9999 -9999 -9999 -9999 -9999 -9999 -9999 -9999 -9999 -9999 -9999 -9999 -9999 -9999 -9999 -9999 -9999 -9999 -9999 -9999 -9999 -9999 -9999 -9999 -9999 -9999 -9999 -9999 -9999 -9999 -9999 -9999 -9999 -9999 -9999 -9999 -9999 -9999 -9999 -9999 -9999 -9999 -9999 -9999 -9999 -9999 -9999 -9999 -9999 -9999 -9999 -9999 -9999 -9999 -9999 -9999 -9999 -9999 -9999 -9999 -9999 -9999 -9999 -9999 -9999 -9999 -9999 -9999 -9999 -9999 -9999 -9999 -9999 -9999 -9999 -9999 -9999 -9999 -9999 -9999 -9999 -9999 -9999 -9999 -9999 -9999 -9999 -9999 -9999 -9999 -9999 -9999 929 986 1033 1200 1214 1378 1286 1317 1343 1463 1581 1839 1520 1449 1739 1625 1630 1669 1515 1802 1729 1596 1425 1324 1434 1549 1577 1628 1607 1332 1321 1217 1076 944 910 908 910 897 860 846 836 829 822 812 805 797 794 784 787 796 800 798 788 778 767 760 754 751 750 755 761 755 769 761 747 748 738 727 727 712 708 711 695 713 702 698 731 719 734 681 632 643 769 773 772 773 771 771 768 767 781 807 820 794 779 766 756 744 682 666 672 672 679 694 717 721 708 687 676 669 667 629 654 599 581 608 544 530 529 520 516 515 510 504 496 485 480 475 465 472 468 461 450 452 446 443 440 433 432 431 424 420 415 411 412 404 398 395 390 388 382 381 379 380 376 376 376 373 371 367 370 369 -9999 -9999 -9999 -9999 -9999 -9999 -9999 -9999 -9999 -9999 -9999 -9999 -9999 -9999 -9999 -9999 -9999 -9999 -9999 -9999 -9999 -9999 -9999 -9999 -9999 -9999 -9999 -9999 -9999 -9999 -9999 -9999 -9999 -9999 -9999 -9999 -9999 -9999 -9999 -9999 -9999 -9999 -9999 -9999 -9999 -9999 -9999 -9999 -9999 -9999 -9999 -9999 -9999 -9999 -9999 -9999 -9999 -9999 -9999 -9999
-9999 -9999 -9999 -9999 -9999 -9999 -9999 -9999 -9999 -9999 -9999 -9999 -9999 -9999 -9999 -9999 -9999 -9999 -9999 -9999 -9999 -9999 -9999 -9999 -9999 -9999 -9999 -9999 -9999 -9999 -9999 -9999 -9999 -9999 -9999 -9999 -9999 -9999 -9999 -9999 -9999 -9999 -9999 -9999 -9999 -9999 -9999 -9999 -9999 -9999 -9999 -9999 -9999 -9999 -9999 -9999 -9999 -9999 -9999 -9999 -9999 -9999 -9999 -9999 -9999 -9999 -9999 -9999 -9999 -9999 -9999 -9999 -9999 -9999 -9999 -9999 -9999 -9999 -9999 -9999 -9999 -9999 -9999 -9999 -9999 -9999 -9999 -9999 -9999 -9999 -9999 -9999 -9999 -9999 -9999 -9999 -9999 -9999 -9999 -9999 -9999 -9999 -9999 -9999 -9999 -9999 -9999 -9999 -9999 -9999 -9999 -9999 -9999 -9999 -9999 -9999 -9999 -9999 -9999 -9999 -9999 -9999 -9999 -9999 -9999 937 969 1041 1140 1202 1185 1213 1280 1310 1344 1394 1682 1524 1390 1531 1611 1535 1597 1385 1592 1699 1678 1535 1334 1315 1396 1485 1574 1680 1377 1134 1008 969 1000 1001 973 971 903 854 848 837 833 829 818 810 799 798 795 787 803 806 796 793 776 771 765 754 759 755 757 771 762 769 738 737 735 735 719 713 707 702 713 688 694 693 692 684 685 874 710 638 636 779 777 770 774 770 765 762 763 777 779 789 777 770 763 755 693 674 666 658 674 686 696 705 706 698 683 625 663 666 659 654 643 567 539 534 538 543 531 532 524 514 509 498 489 484 482 470 476 469 462 462 452 450 447 441 440 437 433 428 425 420 414 410 406 401 398 392 388 386 382 379 381 381 380 379 378 370 372 370 368 367 -9999 -9999 -9999 -9999 -9999 -9999 -9999 -9999 -9999 -9999 -9999 -9999 -9999 -9999 -9999 -9999 -9999 -9999 -9999 -9999 -9999 -9999 -9999 -9999 -9999 -9999 -9999 -9999 -9999 -9999 -9999 -9999 -9999 -9999 -9999 -9999 -9999 -9999 -9999 -9999 -9999 -9999 -9999 -9999 -9999 -9999 -9999 -9999 -9999 -9999 -9999 -9999 -9999 -9999 -9999 -9999 -9999 -9999 -9999
-9999 -9999 -9999 -9999 -9999 -9999 -9999 -9999 -9999 -9999 -9999 -9999 -9999 -9999 -9999 -9999 -9999 -9999 -9999 -9999 -9999 -9999 -9999 -9999 -9999 -9999 -9999 -9999 -9999 -9999 -9999 -9999 -9999 -9999 -9999 -9999 -9999 -9999 -9999 -9999 -9999 -9999 -9999 -9999 -9999 -9999 -9999 -9999 -9999 -9999 -9999 -9999 -9999 -9999 -9999 -9999 -9999 -9999 -9999 -9999 -9999 -9999 -9999 -9999 -9999 -9999 -9999 -9999 -9999 -9999 -9999 -9999 -9999 -9999 -9999 -9999 -9999 -9999 -9999 -9999 -9999 -9999 -9999 -9999 -9999 -9999 -9999 -9999 -9999 -9999 -9999 -9999 -9999 -9999 -9999 -9999 -9999 -9999 -9999 -9999 -9999 -9999 -9999 -9999 -9999 -9999 -9999 -9999 -9999 -9999 -9999 -9999 -9999 -9999 -9999 -9999 -9999 -9999 -9999 -9999 -9999 -9999 -9999 -9999 -9999 934 958 1020 1143 1158 1257 1286 1272 1318 1360 1540 1605 1460 1384 1418 1575 1394 1541 1302 1408 1430 1523 1434 1300 1337 1479 1643 1775 1477 1262 1236 1047 1111 1005 929 898 918 903 941 872 862 847 843 835 818 806 811 802 792 809 803 795 790 789 775 768 763 767 759 761 772 754 760 749 727 721 730 717 706 706 693 698 681 676 679 706 665 666 659 663 650 645 784 786 778 782 772 764 757 755 757 759 745 767 764 761 745 676 668 660 651 699 706 697 687 690 688 665 619 596 653 658 589 556 554 553 548 553 549 545 540 536 525 514 503 505 489 481 475 478 475 465 463 459 455 447 443 444 439 437 431 424 419 417 411 408 403 401 396 391 387 384 387 385 385 383 380 381 378 377 374 370 366 -9999 -9999 -9999 -9999 -9999 -9999 -9999 -9999 -9999 -9999 -9999 -9999 -9999 -9999 -9999 -9999 -9999 -9999 -9999 -9999 -9999 -9999 -9999 -9999 -9999 -9999 -9999 -9999 -9999 -9999 -9999 -9999 -9999 -9999 -9999 -9999 -9999 -9999 -9999 -9999 -9999 -9999 -9999 -9999 -9999 -9999 -9999 -9999 -9999 -9999 -9999 -9999 -9999 -9999 -9999 -9999 -9999 -9999 -9999
-9999 -9999 -9999 -9999 -9999 -9999 -9999 -9999 -9999 -9999 -9999 -9999 -9999 -9999 -9999 -9999 -9999 -9999 -9999 -9999 -9999 -9999 -9999 -9999 -9999 -9999 -9999 -9999 -9999 -9999 -9999 -9999 -9999 -9999 -9999 -9999 -9999 -9999 -9999 -9999 -9999 -9999 -9999 -9999 -9999 -9999 -9999 -9999 -9999 -9999 -9999 -9999 -9999 -9999 -9999 -9999 -9999 -9999 -9999 -9999 -9999 -9999 -9999 -9999 -9999 -9999 -9999 -9999 -9999 -9999 -9999 -9999 -9999 -9999 -9999 -9999 -9999 -9999 -9999 -9999 -9999 -9999 -9999 -9999 -9999 -9999 -9999 -9999 -9999 -9999 -9999 -9999 -9999 -9999 -9999 -9999 -9999 -9999 -9999 -9999 -9999 -9999 -9999 -9999 -9999 -9999 -9999 -9999 -9999 -9999 -9999 -9999 -9999 -9999 -9999 -9999 -9999 -9999 -9999 -9999 -9999 -9999 -9999 -9999 -9999 -9999 981 1034 1155 1235 1248 1366 1335 1316 1357 1398 1436 1423 1372 1360 1513 1458 1374 1299 1300 1358 1328 1459 1311 1324 1409 1623 1500 1436 1438 1215 1071 1043 985 980 956 1079 1097 1092 929 890 863 861 840 828 814 814 804 798 811 805 801 805 796 781 772 772 770 766 761 765 747 747 743 730 720 725 707 695 692 682 678 674 674 674 695 675 661 650 668 652 665 784 793 784 781 760 749 752 728 736 718 716 730 753 754 702 668 667 660 650 668 677 638 637 675 676 650 608 596 583 572 570 567 561 559 564 568 567 564 549 541 529 521 508 510 492 484 483 482 478 471 466 462 456 455 448 445 437 434 431 429 421 421 418 408 407 401 399 394 390 386 387 386 385 385 387 382 379 379 374 376 370 367 -9999 -9999 -9999 -9999 -9999 -9999 -9999 -9999 -9999 -9999 -9999 -9999 -9999 -9999 -9999 -9999 -9999 -9999 -9999 -9999 -9999 -9999 -9999 -9999 -9999 -9999 -9999 -9999 -9999 -9999 -9999 -9999 -9999 -9999 -9999 -9999 -9999 -9999 -9999 -9999 -9999 -9999 -9999 -9999 -9999 -9999 -9999 -9999 -9999 -9999 -9999 -9999 -9999 -9999 -9999 -9999 -9999 -9999
-9999 -9999 -9999 -9999 -9999 -9999 -9999 -9999 -9999 -9999 -9999 -9999 -9999 -9999 -9999 -9999 -9999 -9999 -9999 -9999 -9999 -9999 -9999 -9999 -9999 -9999 -9999 -9999 -9999 -9999 -9999 -9999 -9999 -9999 -9999 -9999 -9999 -9999 -9999 -9999 -9999 -9999 -9999 -9999 -9999 -9999 -9999 -9999 -9999 -9999 -9999 -9999 -9999 -9999 -9999 -9999 -9999 -9999 -9999 -9999 -9999 -9999 -9999 -9999 -9999 -9999 -9999 -9999 -9999 -9999 -9999 -9999 -9999 -9999 -9999 -9999 -9999 -9999 -9999 -9999 -9999 -9999 -9999 -9999 -9999 -9999 -9999 -9999 -9999 -9999 -9999 -9999 -9999 -9999 -9999 -9999 -9999 -9999 -9999 -9999 -9999 -9999 -9999 -9999 -9999 -9999 -9999 -9999 -9999 -9999 -9999 -9999 -9999 -9999 -9999 -9999 -9999 -9999 -9999 -9999 -9999 -9999 -9999 -9999 -9999 -9999 986 1082 1183 1255 1279 1274 1290 1335 1354 1386 1440 1516 1389 1324 1550 1364 1335 1320 1289 1304 1270 1286 1319 1325 1355 1387 1388 1408 1292 1306 1380 1193 1047 1059 1154 1242 1366 1313 1055 1020 889 878 854 838 825 824 807 806 816 812 811 803 797 787 778 770 765 759 751 759 751 733 728 726 723 704 704 694 686 683 686 683 678 671 665 661 656 653 674 740 701 797 795 784 777 750 738 747 727 711 707 700 700 714 752 680 664 659 655 646 642 637 630 624 620 610 609 603 594 598 588 582 572 574 560 576 584 573 563 552 550 540 521 508 500 499 485 492 486 478 478 469 465 461 459 451 447 444 436 435 428 426 421 418 414 408 404 400 395 396 390 391 392 392 389 386 387 384 382 379 374 371 367 364 -9999 -9999 -9999 -9999 -9999 -9999 -9999 -9999 -9999 -9999 -9999 -9999 -9999 -9999 -9999 -9999 -9999 -9999 -9999 -9999 -9999 -9999 -9999 -9999 -9999 -9999 -9999 -9999 -9999 -9999 -9999 -9999 -9999 -9999 -9999 -9999 -9999 -9999 -9999 -9999 -9999 -9999 -9999 -9999 -9999 -9999 -9999 -9999 -9999 -9999 -9999 -9999 -9999 -9999 -9999 -9999 -9999
-9999 -9999 -9999 -9999 -9999 -9999 -9999 -9999 -9999 -9999 -9999 -9999 -9999 -9999 -9999 -9999 -9999 -9999 -9999 -9999 -9999 -9999 -9999 -9999 -9999 -9999 -9999 -9999 -9999 -9999 -9999 -9999 -9999 -9999 -9999 -9999 -9999 -9999 -9999 -9999 -9999 -9999 -9999 -9999 -9999 -9999 -9999 -9999 -9999 -9999 -9999 -9999 -9999 -9999 -9999 -9999 -9999 -9999 -9999 -9999 -9999 -9999 -9999 -9999 -9999 -9999 -9999 -9999 -9999 -9999 -9999 -9999 -9999 -9999 -9999 -9999 -9999 -9999 -9999 -9999 -9999 -9999 -9999 -9999 -9999 -9999 -9999 -9999 -9999 -9999 -9999 -9999 -9999 -9999 -9999 -9999 -9999 -9999 -9999 -9999 -9999 -9999 -9999 -9999 -9999 -9999 -9999 -9999 -9999 -9999 -9999 -9999 -9999 -9999 -9999 -9999 -9999 -9999 -9999 -9999 -9999 -9999 -9999 -9999 -9999 944 985 1038 1161 1179 1223 1314 1345 1373 1360 1387 1465 1338 1355 1288 1332 1338 1295 1274 1285 1264 1283 1351 1483 1382 1438 1454 1401 1454 1517 1540 1890 1485 1217 1200 1207 1404 1337 1115 1005 996 949 908 869 852 839 827 813 816 821 810 797 799 801 793 781 772 763 753 746 744 742 741 727 713 708 703 695 692 698 695 704 686 671 674 670 663 663 672 663 758 785 788 787 781 763 742 731 729 716 712 705 695 692 693 699 672 668 661 653 651 647 642 636 631 630 617 614 609 610 607 598 595 590 589 568 582 593 569 560 563 554 543 523 511 501 497 499 492 488 480 479 474 469 464 460 455 449 444 439 436 430 425 423 417 410 407 398 402 399 401 395 395 392 393 394 388 391 387 385 380 378 375 372 368 365 -9999 -9999 -9999 -9999 -9999 -9999 -9999 -9999 -9999 -9999 -9999 -9999 -9999 -9999 -9999 -9999 -9999 -9999 -9999 -9999 -9999 -9999 -9999 -9999 -9999 -9999 -9999 -9999 -9999 -9999 -9999 -9999 -9999 -9999 -9999 -9999 -9999 -9999 -9999 -9999 -9999 -9999 -9999 -9999 -9999 -9999 -9999 -9999 -9999 -9999 -9999 -9999 -9999 -9999 -9999 -9999
-9999 -9999 -9999 -9999 -9999 -9999 -9999 -9999 -9999 -9999 -9999 -9999 -9999 -9999 -9999 -9999 -9999 -9999 -9999 -9999 -9999 -9999 -9999 -9999 -9999 -9999 -9999 -9999 -9999 -9999 -9999 -9999 -9999 -9999 -9999 -9999 -9999 -9999 -9999 -9999 -9999 -9999 -9999 -9999 -9999 -9999 -9999 -9999 -9999 -9999 -9999 -9999 -9999 -9999 -9999 -9999 -9999 -9999 -9999 -9999 -9999 -9999 -9999 -9999 -9999 -9999 -9999 -9999 -9999 -9999 -9999 -9999 -9999 -9999 -9999 -9999 -9999 -9999 -9999 -9999 -9999 -9999 -9999 -9999 -9999 -9999 -9999 -9999 -9999 -9999 -9999 -9999 -9999 -9999 -9999 -9999 -9999 -9999 -9999 -9999 -9999 -9999 -9999 -9999 -9999 -9999 -9999 -9999 -9999 -9999 -9999 -9999 -9999 -9999 -9999 -9999 -9999 -9999 -9999 -9999 -9999 -9999 -9999 -9999 -9999 1034 1033 1062 1192 1188 1237 1264 1400 1426 1399 1370 1302 1339 1320 1290 1311 1287 1267 1267 1270 1293 1316 1485 1634 1527 1554 1656 1408 1757 1843 1683 1995 1760 1663 1610 1566 1546 1270 1208 1323 1288 1181 934 885 864 843 831 826 826 808 806 788 787 801 783 772 768 765 757 747 736 738 727 716 716 705 699 702 707 707 708 702 686 680 705 683 701 682 676 668 681 783 783 782 779 765 735 729 723 713 709 701 695 687 684 677 669 675 671 661 657 656 651 646 636 631 621 626 619 614 621 608 613 599 586 577 593 599 591 570 570 551 533 526 515 506 499 502 493 488 481 479 471 469 486 458 454 452 446 440 436 429 425 421 416 413 413 402 403 404 403 401 398 394 397 398 394 395 389 384 382 382 375 374 372 370 366 -9999 -9999 -9999 -9999 -9999 -9999 -9999 -9999 -9999 -9999 -9999 -9999 -9999 -9999 -9999 -9999 -9999 -9999 -9999 -9999 -9999 -9999 -9999 -9999 -9999 -9999 -9999 -9999 -9999 -9999 -9999 -9999 -9999 -9999 -9999 -9999 -9999 -9999 -9999 -9999 -9999 -9999 -9999 -9999 -9999 -9999 -9999 -9999 -9999 -9999 -9999 -9999 -9999 -9999 -9999
-9999 -9999 -9999 -9999 -9999 -9999 -9999 -9999 -9999 -9999 -9999 -9999 -9999 -9999 -9999 -9999 -9999 -9999 -9999 -9999 -9999 -9999 -9999 -9999 -9999 -9999 -9999 -9999 -9999 -9999 -9999 -9999 -9999 -9999 -9999 -9999 -9999 -9999 -9999 -9999 -9999 -9999 -9999 -9999 -9999 -9999 -9999 -9999 -9999 -9999 -9999 -9999 -9999 -9999 -9999 -9999 -9999 -9999 -9999 -9999 -9999 -9999 -9999 -9999 -9999 -9999 -9999 -9999 -9999 -9999 -9999 -9999 -9999 -9999 -9999 -9999 -9999 -9999 -9999 -9999 -9999 -9999 -9999 -9999 -9999 -9999 -9999 -9999 -9999 -9999 -9999 -9999 -9999 -9999 -9999 -9999 -9999 -9999 -9999 -9999 -9999 -9999 -9999 -9999 -9999 -9999 -9999 -9999 -9999 -9999 -9999 -9999 -9999 -9999 -9999 -9999 -9999 -9999 -9999 -9999 -9999 -9999 -9999 -9999 -9999 981 1057 1061 1169 1228 1232 1300 1328 1551 1382 1395 1297 1315 1295 1246 1251 1254 1223 1265 1291 1308 1343 1463 1659 1810 1625 1892 1568 1720 1968 1839 1972 1670 1339 1392 1367 1169 1338 1358 1478 1408 1122 940 900 875 850 826 820 818 801 800 784 778 780 785 768 758 757 758 748 737 732 731 723 708 700 713 708 734 718 715 712 687 685 713 690 696 700 692 677 718 714 780 780 775 749 736 737 730 724 709 709 696 691 684 677 696 673 676 671 659 660 662 654 644 638 637 633 622 627 628 623 612 596 596 598 601 595 586 588 573 567 545 526 513 509 504 499 493 485 483 478 474 471 464 461 458 450 446 438 435 430 424 424 418 416 410 412 407 406 408 404 407 397 401 401 398 396 393 389 388 386 382 381 375 375 369 366 -9999 -9999 -9999 -9999 -9999 -9999 -9999 -9999 -9999 -9999 -9999 -9999 -9999 -9999 -9999 -9999 -9999 -9999 -9999 -9999 -9999 -9999 -9999 -9999 -9999 -9999 -9999 -9999 -9999 -9999 -9999 -9999 -9999 -9999 -9999 -9999 -9999 -9999 -9999 -9999 -9999 -9999 -9999 -9999 -9999 -9999 -9999 -9999 -9999 -9999 -9999 -9999 -9999 -9999
-9999 -9999 -9999 -9999 -9999 -9999 -9999 -9999 -9999 -9999 -9999 -9999 -9999 -9999 -9999 -9999 -9999 -9999 -9999 -9999 -9999 -9999 -9999 -9999 -9999 -9999 -9999 -9999 -9999 -9999 -9999 -9999 -9999 -9999 -9999 -9999 -9999 -9999 -9999 -9999 -9999 -9999 -9999 -9999 -9999 -9999 -9999 -9999 -9999 -9999 -9999 -9999 -9999 -9999 -9999 -9999 -9999 -9999 -9999 -9999 -9999 -9999 -9999 -9999 -9999 -9999 -9999 -9999 -9999 -9999 -9999 -9999 -9999 -9999 -9999 -9999 -9999 -9999 -9999 -9999 -9999 -9999 -9999 -9999 -9999 -9999 -9999 -9999 -9999 -9999 -9999 -9999 -9999 -9999 -9999 -9999 -9999 -9999 -9999 -9999 -9999 -9999 -9999 -9999 -9999 -9999 -9999 -9999 -9999 -9999 -9999 -9999 -9999 -9999 -9999 -9999 -9999 -9999 -9999 -9999 -9999 -9999 -9999 -9999 1002 1014 1079 1060 1122 1224 1255 1250 1292 1318 1349 1305 1307 1257 1281 1242 1233 1264 1361 1300 1270 1312 1394 1547 1880 1818 1772 1972 1852 1707 2005 1831 1937 1541 1227 1226 1257 1041 1125 1107 1287 1235 1181 1000 891 866 841 824 807 803 797 788 790 773 764 766 775 758 744 746 750 742 741 723 713 707 718 727 722 727 730 711 697 697 690 723 712 704 726 706 684 724 705 725 748 758 746 743 744 730 718 713 705 701 692 685 689 687 682 680 675 668 669 670 661 653 639 632 637 626 636 632 621 609 613 621 610 606 595 582 566 563 569 554 525 520 515 518 504 501 493 486 482 475 470 481 482 458 452 445 441 435 430 426 427 422 416 416 413 412 416 414 410 406 409 404 401 401 396 396 399 393 390 387 387 380 378 374 370 364 -9999 -9999 -9999 -9999 -9999 -9999 -9999 -9999 -9999 -9999 -9999 -9999 -9999 -9999 -9999 -9999 -9999 -9999 -9999 -9999 -9999 -9999 -9999 -9999 -9999 -9999 -9999 -9999 -9999 -9999 -9999 -9999 -9999 -9999 -9999 -9999 -9999 -9999 -9999 -9999 -9999 -9999 -9999 -9999 -9999 -9999 -9999 -9999 -9999 -9999 -9999 -9999 -9999
-9999 -9999 -9999 -9999 -9999 -9999 -9999 -9999 -9999 -9999 -9999 -9999 -9999 -9999 -9999 -9999 -9999 -9999 -9999 -9999 -9999 -9999 -9999 -9999 -9999 -9999 -9999 -9999 -9999 -9999 -9999 -9999 -9999 -9999 -9999 -9999 -9999 -9999 -9999 -9999 -9999 -9999 -9999 -9999 -9999 -9999 -9999 -9999 -9999 -9999 -9999 -9999 -9999 -9999 -9999 -9999 -9999 -9999 -9999 -9999 -9999 -9999 -9999 -9999 -9999 -9999 -9999 -9999 -9999 -9999 -9999 -9999 -9999 -9999 -9999 -9999 -9999 -9999 -9999 -9999 -9999 -9999 -9999 -9999 -9999 -9999 -9999 -9999 -9999 -9999 -9999 -9999 -9999 -9999 -9999 -9999 -9999 -9999 -9999 -9999 -9999 -9999 -9999 -9999 -9999 -9999 -9999 -9999 -9999 -9999 -9999 -9999 -9999 -9999 -9999 -9999 -9999 -9999 -9999 -9999 -9999 -9999 -9999 -9999 1014 1019 1093 1080 1099 1188 1192 1217 1251 1263 1267 1281 1257 1245 1231 1198 1254 1273 1321 1418 1346 1331 1448 1540 1736 2086 2019 2015 2028 1797 1968 1918 1831 1400 1173 1057 1074 963 951 972 1342 1547 1296 1117 985 855 836 821 806 800 790 785 778 779 770 752 766 749 737 735 729 728 731 726 712 715 717 740 733 738 732 709 698 699 701 724 716 761 743 713 697 696 706 712 731 743 748 752 735 729 721 716 713 705 698 693 689 697 689 685 684 679 673 666 659 654 643 644 640 639 635 627 623 631 620 625 617 607 601 576 560 551 546 542 528 524 514 514 518 516 493 486 483 501 514 477 476 470 450 447 441 436 432 435 430 425 421 421 416 412 413 414 410 406 407 410 403 409 407 404 401 398 394 394 391 389 381 379 369 371 364 -9999 -9999 -9999 -9999 -9999 -9999 -9999 -9999 -9999 -9999 -9999 -9999 -9999 -9999 -9999 -9999 -9999 -9999 -9999 -9999 -9999 -9999 -9999 -9999 -9999 -9999 -9999 -9999 -9999 -9999 -9999 -9999 -9999 -9999 -9999 -9999 -9999 -9999 -9999 -9999 -9999 -9999 -9999 -9999 -9999 -9999 -9999 -9999 -9999 -9999 -9999 -9999
-9999 -9999 -9999 -9999 -9999 -9999 -9999 -9999 -9999 -9999 -9999 -9999 -9999 -9999 -9999 -9999 -9999 -9999 -9999 -9999 -9999 -9999 -9999 -9999 -9999 -9999 -9999 -9999 -9999 -9999 -9999 -9999 -9999 -9999 -9999 -9999 -9999 -9999 -9999 -9999 -9999 -9999 -9999 -9999 -9999 -9999 -9999 -9999 -9999 -9999 -9999 -9999 -9999 -9999 -9999 -9999 -9999 -9999 -9999 -9999 -9999 -9999 -9999 -9999 -9999 -9999 -9999 -9999 -9999 -9999 -9999 -9999 -9999 -9999 -9999 -9999 -9999 -9999 -9999 -9999 -9999 -9999 -9999 -9999 -9999 -9999 -9999 -9999 -9999 -9999 -9999 -9999 -9999 -9999 -9999 -9999 -9999 -9999 -9999 -9999 -9999 -9999 -9999 -9999 -9999 -9999 -9999 -9999 -9999 -9999 -9999 -9999 -9999 -9999 -9999 -9999 -9999 -9999 -9999 -9999 -9999 -9999 -9999 -9999 1051 1030 1029 1088 1138 1175 1167 1213 1209 1205 1248 1261 1242 1217 1211 1230 1270 1290 1458 1621 1378 1380 1425 1507 1614 1864 2014 1999 2232 2012 1728 1791 1508 1342 1081 994 979 935 918 928 1064 1394 1042 921 856 831 822 821 818 800 785 776 770 768 763 759 744 740 739 742 730 726 724 719 716 730 729 751 748 742 720 712 705 698 716 730 735 787 742 733 717 709 705 707 726 759 755 747 736 735 728 721 721 712 702 697 697 704 699 695 681 681 686 670 658 657 652 655 655 648 634 642 636 642 636 629 621 615 602 577 566 557 539 532 526 521 517 529 507 503 498 491 486 484 483 483 465 455 454 451 444 438 434 437 435 425 423 425 422 429 428 417 411 414 409 410 413 417 415 412 406 403 403 397 394 385 382 380 377 380 369 358 -9999 -9999 -9999 -9999 -9999 -9999 -9999 -9999 -9999 -9999 -9999 -9999 -9999 -9999 -9999 -9999 -9999 -9999 -9999 -9999 -9999 -9999 -9999 -9999 -9999 -9999 -9999 -9999 -9999 -9999 -9999 -9999 -9999 -9999 -9999 -9999 -9999 -9999 -9999 -9999 -9999 -9999 -9999 -9999 -9999 -9999 -9999 -9999 -9999 -9999 -9999
-9999 -9999 -9999 -9999 -9999 -9999 -9999 -9999 -9999 -9999 -9999 -9999 -9999 -9999 -9999 -9999 -9999 -9999 -9999 -9999 -9999 -9999 -9999 -9999 -9999 -9999 -9999 -9999 -9999 -9999 -9999 -9999 -9999 -9999 -9999 -9999 -9999 -9999 -9999 -9999 -9999 -9999 -9999 -9999 -9999 -9999 -9999 -9999 -9999 -9999 -9999 -9999 -9999 -9999 -9999 -9999 -9999 -9999 -9999 -9999 -9999 -9999 -9999 -9999 -9999 -9999 -9999 -9999 -9999 -9999 -9999 -9999 -9999 -9999 -9999 -9999 -9999 -9999 -9999 -9999 -9999 -9999 -9999 -9999 -9999 -9999 -9999 -9999 -9999 -9999 -9999 -9999 -9999 -9999 -9999 -9999 -9999 -9999 -9999 -9999 -9999 -9999 -9999 -9999 -9999 -9999 -9999 -9999 -9999 -9999 -9999 -9999 -9999 -9999 -9999 -9999 -9999 -9999 -9999 -9999 -9999 -9999 -9999 -9999 -9999 1081 1022 1087 1131 1200 1140 1170 1198 1169 1189 1240 1179 1254 1183 1286 1324 1307 1578 1743 1574 1435 1446 1511 1531 1554 1799 2048 2021 1735 1590 1501 1531 1399 1135 970 927 918 893 888 914 956 965 874 932 818 805 805 808 794 789 778 772 755 750 746 743 744 743 746 739 731 720 720 723 746 743 760 761 736 736 730 715 715 706 724 749 793 796 748 723 713 704 730 726 742 760 746 740 742 730 730 716 713 714 703 705 708 693 696 689 686 681 676 671 665 663 665 663 652 648 652 648 637 619 622 604 602 588 575 573 553 537 532 532 531 521 521 511 508 497 505 493 495 493 483 469 466 458 454 448 443 440 450 436 429 432 426 430 454 425 421 417 414 417 412 422 422 424 418 416 412 401 397 396 396 386 390 382 371 370 357 -9999 -9999 -9999 -9999 -9999 -9999 -9999 -9999 -9999 -9999 -9999 -9999 -9999 -9999 -9999 -9999 -9999 -9999 -9999 -9999 -9999 -9999 -9999 -9999 -9999 -9999 -9999 -9999 -9999 -9999 -9999 -9999 -9999 -9999 -9999 -9999 -9999 -9999 -9999 -9999 -9999 -9999 -9999 -9999 -9999 -9999 -9999 -9999 -9999 -9999 -9999
-9999 -9999 -9999 -9999 -9999 -9999 -9999 -9999 -9999 -9999 -9999 -9999 -9999 -9999 -9999 -9999 -9999 -9999 -9999 -9999 -9999 -9999 -9999 -9999 -9999 -9999 -9999 -9999 -9999 -9999 -9999 -9999 -9999 -9999 -9999 -9999 -9999 -9999 -9999 -9999 -9999 -9999 -9999 -9999 -9999 -9999 -9999 -9999 -9999 -9999 -9999 -9999 -9999 -9999 -9999 -9999 -9999 -9999 -9999 -9999 -9999 -9999 -9999 -9999 -9999 -9999 -9999 -9999 -9999 -9999 -9999 -9999 -9999 -9999 -9999 -9999 -9999 -9999 -9999 -9999 -9999 -9999 -9999 -9999 -9999 -9999 -9999 -9999 -9999 -9999 -9999 -9999 -9999 -9999 -9999 -9999 -9999 -9999 -9999 -9999 -9999 -9999 -9999 -9999 -9999 -9999 -9999 -9999 -9999 -9999 -9999 -9999 -9999 -9999 -9999 -9999 -9999 -9999 -9999 -9999 -9999 -9999 -9999 -9999 -9999 1092 1053 1061 1079 1055 1120 1152 1158 1125 1175 1149 1129 1138 1185 1254 1282 1298 1352 1388 1604 1625 1471 1454 1475 1627 1718 1835 2055 1619 1634 1192 1223 1291 1205 1004 902 884 877 869 862 866 876 845 824 803 790 793 788 782 787 771 761 755 758 758 749 747 756 747 733 729 729 727 729 751 753 772 757 754 742 725 723 708 708 728 761 803 805 755 744 729 725 738 740 742 765 754 749 741 734 734 740 727 718 716 703 701 695 683 681 678 671 663 661 656 655 655 652 651 655 641 638 634 616 608 594 599 588 561 553 548 538 555 551 540 531 519 511 506 507 509 519 501 493 482 472 475 469 461 456 450 444 477 441 435 438 433 445 437 431 426 424 421 422 420 425 435 436 428 418 414 405 416 410 403 400 390 377 371 365 358 359 -9999 -9999 -9999 -9999 -9999 -9999 -9999 -9999 -9999 -9999 -9999 -9999 -9999 -9999 -9999 -9999 -9999 -9999 -9999 -9999 -9999 -9999 -9999 -9999 -9999 -9999 -9999 -9999 -9999 -9999 -9999 -9999 -9999 -9999 -9999 -9999 -9999 -9999 -9999 -9999 -9999 -9999 -9999 -9999 -9999 -9999 -9999 -9999 -9999 -9999
-9999 -9999 -9999 -9999 -9999 -9999 -9999 -9999 -9999 -9999 -9999 -9999 -9999 -9999 -9999 -9999 -9999 -9999 -9999 -9999 -9999 -9999 -9999 -9999 -9999 -9999 -9999 -9999 -9999 -9999 -9999 -9999 -9999 -9999 -9999 -9999 -9999 -9999 -9999 -9999 -9999 -9999 -9999 -9999 -9999 -9999 -9999 -9999 -9999 -9999 -9999 -9999 -9999 -9999 -9999 -9999 -9999 -9999 -9999 -9999 -9999 -9999 -9999 -9999 -9999 -9999 -9999 -9999 -9999 -9999 -9999 -9999 -9999 -9999 -9999 -9999 -9999 -9999 -9999 -9999 -9999 -9999 -9999 -9999 -9999 -9999 -9999 -9999 -9999 -9999 -9999 -9999 -9999 -9999 -9999 -9999 -9999 -9999 -9999 -9999 -9999 -9999 -9999 -9999 -9999 -9999 -9999 -9999 -9999 -9999 -9999 -9999 -9999 -9999 -9999 -9999 -9999 -9999 1052 1074 -9999 -9999 -9999 -9999 -9999 1135 1100 1079 1088 1058 1097 1084 1100 1095 1129 1151 1219 1179 1201 1262 1267 1282 1316 1351 1404 1428 1436 1657 1584 1536 1604 1706 2060 1562 1386 1176 1059 1003 1292 1063 919 880 862 847 842 828 822 814 801 795 796 784 786 782 774 764 759 766 768 762 760 763 759 751 740 732 741 738 737 757 757 780 761 755 750 735 726 718 716 724 754 809 817 802 753 727 754 735 751 751 765 769 754 750 750 739 742 728 720 711 706 696 681 679 669 674 672 659 653 648 649 642 647 644 639 641 630 620 610 600 588 578 569 561 551 550 553 570 553 542 531 522 513 517 513 518 525 513 504 493 474 478 479 464 457 449 448 455 438 443 443 442 438 437 429 424 420 421 425 427 439 445 434 420 416 418 420 426 427 415 401 390 379 380 374 365 364 366 -9999 -9999 -9999 -9999 -9999 -9999 -9999 -9999 -9999 -9999 -9999 -9999 -9999 -9999 -9999 -9999 -9999 -9999 -9999 -9999 -9999 -9999 -9999 -9999 -9999 -9999 -9999 -9999 -9999 -9999 -9999 -9999 -9999 -9999 -9999 -9999 -9999 -9999 -9999 -9999 -9999 -9999 -9999 -9999 -9999 -9999 -9999 -9999 -9999
-9999 -9999 -9999 -9999 -9999 -9999 -9999 -9999 -9999 -9999 -9999 -9999 -9999 -9999 -9999 -9999 -9999 -9999 -9999 -9999 -9999 -9999 -9999 -9999 -9999 -9999 -9999 -9999 -9999 -9999 -9999 -9999 -9999 -9999 -9999 -9999 -9999 -9999 -9999 -9999 -9999 -9999 -9999 -9999 -9999 -9999 -9999 -9999 -9999 -9999 -9999 -9999 -9999 -9999 -9999 -9999 -9999 -9999 -9999 -9999 -9999 -9999 -9999 -9999 -9999 -9999 -9999 -9999 -9999 -9999 -9999 -9999 -9999 -9999 -9999 -9999 -9999 -9999 -9999 -9999 -9999 -9999 -9999 -9999 -9999 -9999 -9999 -9999 -9999 -9999 -9999 -9999 -9999 -9999 -9999 -9999 -9999 -9999 -9999 -9999 -9999 -9999 -9999 -9999 -9999 -9999 -9999 -9999 -9999 -9999 -9999 -9999 -9999 -9999 -9999 -9999 -9999 1051 1066 1100 1123 -9999 -9999 -9999 -9999 1168 1114 1123 1110 1100 1085 1119 1122 1148 1166 1166 1187 1221 1212 1234 1271 1271 1291 1319 1354 1353 1398 1523 1670 1572 1640 1763 1608 1356 1296 1216 999 953 1080 1097 927 881 857 857 844 828 819 808 803 821 798 787 781 775 771 777 769 780 769 765 768 773 757 746 741 743 758 745 740 784 770 781 770 763 752 739 725 724 729 740 747 823 818 783 748 745 766 771 765 747 770 780 762 750 744 735 730 724 716 705 696 694 686 675 669 663 662 657 654 649 642 635 631 629 628 628 626 635 619 605 593 584 566 564 581 565 572 579 572 548 534 520 517 522 529 522 512 521 502 488 485 483 470 465 461 454 452 454 446 460 450 445 448 436 434 430 430 425 430 431 449 444 436 432 423 429 439 477 469 424 402 392 381 379 374 376 384 385 376 -9999 -9999 -9999 -9999 -9999 -9999 -9999 -9999 -9999 -9999 -9999 -9999 -9999 -9999 -9999 -9999 -9999 -9999 -9999 -9999 -9999 -9999 -9999 -9999 -9999 -9999 -9999 -9999 -9999 -9999 -9999 -9999 -9999 -9999 -9999 -9999 -9999 -9999 -9999 -9999 -9999 -9999 -9999 -9999 -9999 -9999 -9999 -9999
-9999 -9999 -9999 -9999 -9999 -9999 -9999 -9999 -9999 -9999 -9999 -9999 -9999 -9999 -9999 -9999 -9999 -9999 -9999 -9999 -9999 -9999 -9999 -9999 -9999 -9999 -9999 -9999 -9999 -9999 -9999 -9999 -9999 -9999 -9999 -9999 -9999 -9999 -9999 -9999 -9999 -9999 -9999 -9999 -9999 -9999 -9999 -9999 -9999 -9999 -9999 -9999 -9999 -9999 -9999 -9999 -9999 -9999 -9999 -9999 -9999 -9999 -9999 -9999 -9999 -9999 -9999 -9999 -9999 -9999 -9999 -9999 -9999 -9999 -9999 -9999 -9999 -9999 -9999 -9999 -9999 -9999 -9999 -9999 -9999 -9999 -9999 -9999 -9999 -9999 -9999 -9999 -9999 -9999 -9999 -9999 -9999 -9999 -9999 -9999 -9999 -9999 -9999 -9999 -9999 -9999 -9999 -9999 -9999 -9999 -9999 -9999 -9999 -9999 -9999 -9999 -9999 1073 1101 1125 1119 1145 -9999 -9999 -9999 1177 1165 1173 1137 1138 1111 1130 1142 1175 1196 1186 1212 1251 1254 1255 1259 1271 1269 1289 1299 1334 1417 1473 1524 1610 1642 1579 1285 1305 1106 1172 965 927 948 1328 989 879 857 837 849 832 817 811 810 819 812 803 797 785 786 796 791 781 772 771 786 771 761 750 752 752 768 750 752 794 784 788 781 765 752 739 734 725 734 728 781 775 789 773 759 764 865 777 765 771 768 777 766 750 743 730 723 716 712 707 695 690 681 681 674 671 661 656 655 655 648 640 634 624 616 623 612 621 616 605 581 581 572 571 585 583 588 590 572 556 540 527 525 538 542 538 526 511 500 487 505 480 476 469 463 466 461 465 458 468 449 451 444 440 437 435 430 431 426 435 445 453 447 442 428 441 448 457 430 410 405 399 394 390 388 393 492 443 386 365 -9999 -9999 -9999 -9999 -9999 -9999 -9999 -9999 -9999 -9999 -9999 -9999 -9999 -9999 -9999 -9999 -9999 -9999 -9999 -9999 -9999 -9999 -9999 -9999 -9999 -9999 -9999 -9999 -9999 -9999 -9999 -9999 -9999 -9999 -9999 -9999 -9999 -9999 -9999 -9999 -9999 -9999 -9999 -9999 -9999 -9999 -9999
-9999 -9999 -9999 -9999 -9999 -9999 -9999 -9999 -9999 -9999 -9999 -9999 -9999 -9999 -9999 -9999 -9999 -9999 -9999 -9999 -9999 -9999 -9999 -9999 -9999 -9999 -9999 -9999 -9999 -9999 -9999 -9999 -9999 -9999 -9999 -9999 -9999 -9999 -9999 -9999 -9999 -9999 -9999 -9999 -9999 -9999 -9999 -9999 -9999 -9999 -9999 -9999 -9999 -9999 -9999 -9999 -9999 -9999 -9999 -9999 -9999 -9999 -9999 -9999 -9999 -9999 -9999 -9999 -9999 -9999 -9999 -9999 -9999 -9999 -9999 -9999 -9999 -9999 -9999 -9999 -9999 -9999 -9999 -9999 -9999 -9999 -9999 -9999 -9999 -9999 -9999 -9999 -9999 -9999 -9999 -9999 -9999 -9999 -9999 -9999 -9999 -9999 -9999 -9999 -9999 -9999 -9999 -9999 -9999 -9999 -9999 -9999 -9999 -9999 -9999 -9999 -9999 1069 1154 1129 1135 1166 -9999 -9999 1152 1186 1196 1186 1168 1141 1152 1151 1161 1176 1216 1239 1229 1269 1259 1275 1277 1292 1287 1325 1345 1391 1347 1468 1637 1683 1658 1459 1203 1148 1038 994 938 911 900 1142 959 879 845 846 824 832 817 813 823 829 822 823 828 802 804 797 798 780 776 780 793 777 766 757 753 760 777 757 758 828 799 798 783 767 758 759 742 736 733 731 746 769 795 790 769 772 790 792 774 778 777 781 765 751 745 737 728 724 711 702 693 689 684 676 673 671 671 664 664 670 658 653 640 626 622 621 616 605 596 593 587 594 598 591 593 604 602 580 573 561 542 535 536 536 551 527 517 508 507 500 497 493 484 482 478 476 474 473 472 463 456 451 446 442 436 433 433 431 431 440 451 464 453 440 435 452 529 438 430 425 417 407 408 402 413 496 488 393 375 378 367 -9999 -9999 -9999 -9999 -9999 -9999 -9999 -9999 -9999 -9999 -9999 -9999 -9999 -9999 -9999 -9999 -9999 -9999 -9999 -9999 -9999 -9999 -9999 -9999 -9999 -9999 -9999 -9999 -9999 -9999 -9999 -9999 -9999 -9999 -9999 -9999 -9999 -9999 -9999 -9999 -9999 -9999 -9999 -9999 -9999 -9999
-9999 -9999 -9999 -9999 -9999 -9999 -9999 -9999 -9999 -9999 -9999 -9999 -9999 -9999 -9999 -9999 -9999 -9999 -9999 -9999 -9999 -9999 -9999 -9999 -9999 -9999 -9999 -9999 -9999 -9999 -9999 -9999 -9999 -9999 -9999 -9999 -9999 -9999 -9999 -9999 -9999 -9999 -9999 -9999 -9999 -9999 -9999 -9999 -9999 -9999 -9999 -9999 -9999 -9999 -9999 -9999 -9999 -9999 -9999 -9999 -9999 -9999 -9999 -9999 -9999 -9999 -9999 -9999 -9999 -9999 -9999 -9999 -9999 -9999 -9999 -9999 -9999 -9999 -9999 -9999 -9999 -9999 -9999 -9999 -9999 -9999 -9999 -9999 -9999 -9999 -9999 -9999 -9999 -9999 -9999 -9999 -9999 -9999 -9999 -9999 -9999 -9999 -9999 -9999 -9999 -9999 -9999 -9999 -9999 -9999 -9999 -9999 -9999 -9999 -9999 -9999 -9999 1079 1128 1168 1151 1170 1214 -9999 -9999 1187 1216 1188 1191 1194 1155 1170 1199 1175 1230 1273 1277 1277 1292 1299 1293 1333 1310 1349 1520 1527 1421 1529 1529 1729 1848 1465 1195 1058 961 962 934 897 887 900 889 859 841 832 827 822 818 819 822 838 832 838 835 822 799 806 804 781 783 796 791 781 768 766 759 779 780 765 776 836 814 806 782 768 772 759 749 748 735 739 743 761 781 797 778 789 808 823 784 788 783 783 766 763 750 738 733 723 711 707 700 689 685 686 686 681 677 681 679 665 655 646 635 630 623 630 623 609 613 593 601 609 611 602 607 593 589 588 575 561 550 534 542 552 535 535 525 523 519 514 512 497 492 501 496 487 489 471 465 464 485 451 445 444 439 438 437 433 433 439 452 458 453 453 448 478 534 469 463 441 440 424 425 508 503 500 402 393 387 400 376 354 -9999 -9999 -9999 -9999 -9999 -9999 -9999 -9999 -9999 -9999 -9999 -9999 -9999 -9999 -9999 -9999 -9999 -9999 -9999 -9999 -9999 -9999 -9999 -9999 -9999 -9999 -9999 -9999 -9999 -9999 -9999 -9999 -9999 -9999 -9999 -9999 -9999 -9999 -9999 -9999 -9999 -9999 -9999 -9999 -9999
-9999 -9999 -9999 -9999 -9999 -9999 -9999 -9999 -9999 -9999 -9999 -9999 -9999 -9999 -9999 -9999 -9999 -9999 -9999 -9999 -9999 -9999 -9999 -9999 -9999 -9999 -9999 -9999 -9999 -9999 -9999 -9999 -9999 -9999 -9999 -9999 -9999 -9999 -9999 -9999 -9999 -9999 -9999 -9999 -9999 -9999 -9999 -9999 -9999 -9999 -9999 -9999 -9999 -9999 -9999 -9999 -9999 -9999 -9999 -9999 -9999 -9999 -9999 -9999 -9999 -9999 -9999 -9999 -9999 -9999 -9999 -9999 -9999 -9999 -9999 -9999 -9999 -9999 -9999 -9999 -9999 -9999 -9999 -9999 -9999 -9999 -9999 -9999 -9999 -9999 -9999 -9999 -9999 -9999 -9999 -9999 -9999 -9999 -9999 -9999 -9999 -9999 -9999 -9999 -9999 -9999 -9999 -9999 -9999 -9999 -9999 -9999 -9999 -9999 -9999 -9999 -9999 1095 1139 1150 1196 1184 1195 -9999 1180 1187 1231 1204 1232 1213 1184 1188 1232 1206 1225 1249 1295 1300 1306 1313 1302 1319 1300 1329 1447 1380 1440 1552 1509 1644 1838 1605 1323 1071 949 924 903 889 879 870 859 850 839 840 830 833 824 828 834 842 847 859 861 847 810 820 806 791 789 806 789 778 771 767 773 784 779 775 785 836 836 815 795 773 775 776 755 743 751 757 752 759 776 794 785 795 807 852 797 790 789 775 766 759 745 739 728 728 718 706 698 689 689 699 695 693 687 680 676 669 661 652 639 642 641 636 630 616 613 611 612 620 624 614 602 583 578 570 559 552 543 554 554 573 547 542 566 556 535 520 509 518 507 522 507 492 483 494 478 482 463 455 453 450 446 445 437 434 434 443 452 465 468 459 464 539 540 533 482 525 520 511 507 511 505 471 443 418 486 486 372 360 347 -9999 -9999 -9999 -9999 -9999 -9999 -9999 -9999 -9999 -9999 -9999 -9999 -9999 -9999 -9999 -9999 -9999 -9999 -9999 -9999 -9999 -9999 -9999 -9999 -9999 -9999 -9999 -9999 -9999 -9999 -9999 -9999 -9999 -9999 -9999 -9999 -9999 -9999 -9999 -9999 -9999 -9999 -9999 -9999
-9999 -9999 -9999 -9999 -9999 -9999 -9999 -9999 -9999 -9999 -9999 -9999 -9999 -9999 -9999 -9999 -9999 -9999 -9999 -9999 -9999 -9999 -9999 -9999 -9999 -9999 -9999 -9999 -9999 -9999 -9999 -9999 -9999 -9999 -9999 -9999 -9999 -9999 -9999 -9999 -9999 -9999 -9999 -9999 -9999 -9999 -9999 -9999 -9999 -9999 -9999 -9999 -9999 -9999 -9999 -9999 -9999 -9999 -9999 -9999 -9999 -9999 -9999 -9999 -9999 -9999 -9999 -9999 -9999 -9999 -9999 -9999 -9999 -9999 -9999 -9999 -9999 -9999 -9999 -9999 -9999 -9999 -9999 -9999 -9999 -9999 -9999 -9999 -9999 -9999 -9999 -9999 -9999 -9999 -9999 -9999 -9999 -9999 -9999 -9999 -9999 -9999 -9999 -9999 -9999 -9999 -9999 -9999 -9999 -9999 -9999 -9999 -9999 -9999 -9999 -9999 -9999 1118 1123 1153 1192 1213 1215 1229 1195 1196 1218 1248 1266 1243 1215 1199 1227 1228 1216 1244 1289 1283 1294 1304 1289 1304 1293 1295 1322 1338 1342 1341 1340 1357 1473 1544 1248 1145 1031 914 901 884 872 862 856 848 847 840 836 830 833 841 840 848 860 859 847 831 823 809 799 791 794 808 790 786 776 776 779 795 791 781 790 813 844 816 794 778 783 764 772 748 748 759 763 758 773 790 799 805 807 818 799 788 781 777 768 777 761 742 740 734 729 707 704 702 691 707 704 696 690 692 687 670 663 651 644 650 646 649 632 634 623 633 629 625 622 610 596 598 587 592 562 565 549 567 569 599 574 613 585 542 539 534 526 523 519 513 496 496 510 498 494 479 466 468 458 452 448 447 445 439 442 448 462 478 484 486 497 546 539 538 533 527 526 518 513 512 509 500 499 497 491 487 382 432 366 -9999 -9999 -9999 -9999 -9999 -9999 -9999 -9999 -9999 -9999 -9999 -9999 -9999 -9999 -9999 -9999 -9999 -9999 -9999 -9999 -9999 -9999 -9999 -9999 -9999 -9999 -9999 -9999 -9999 -9999 -9999 -9999 -9999 -9999 -9999 -9999 -9999 -9999 -9999 -9999 -9999 -9999 -9999 -9999
-9999 -9999 -9999 -9999 -9999 -9999 -9999 -9999 -9999 -9999 -9999 -9999 -9999 -9999 -9999 -9999 -9999 -9999 -9999 -9999 -9999 -9999 -9999 -9999 -9999 -9999 -9999 -9999 -9999 -9999 -9999 -9999 -9999 -9999 -9999 -9999 -9999 -9999 -9999 -9999 -9999 -9999 -9999 -9999 -9999 -9999 -9999 -9999 -9999 -9999 -9999 -9999 -9999 -9999 -9999 -9999 -9999 -9999 -9999 -9999 -9999 -9999 -9999 -9999 -9999 -9999 -9999 -9999 -9999 -9999 -9999 -9999 -9999 -9999 -9999 -9999 -9999 -9999 -9999 -9999 -9999 -9999 -9999 -9999 -9999 -9999 -9999 -9999 -9999 -9999 -9999 -9999 -9999 -9999 -9999 -9999 -9999 -9999 -9999 -9999 -9999 -9999 -9999 -9999 -9999 -9999 -9999 -9999 -9999 -9999 -9999 -9999 -9999 -9999 -9999 -9999 1093 1170 1158 1140 1159 1185 1241 1216 1204 1213 1204 1233 1279 1271 1240 1225 1228 1274 1258 1275 1278 1280 1294 1304 1288 1289 1290 1272 1293 1301 1300 1294 1310 1351 1691 1622 1323 1230 964 919 897 883 877 862 856 862 860 852 847 839 840 844 851 893 875 859 845 830 830 814 809 800 801 808 799 788 783 784 801 792 790 798 801 846 852 826 806 794 781 782 766 752 761 779 765 760 774 786 801 804 814 813 799 789 780 769 762 773 761 748 739 725 721 708 707 700 699 707 710 700 699 687 679 675 663 654 651 663 660 653 639 632 640 647 631 624 621 608 604 596 583 591 571 566 564 570 600 585 581 559 548 544 540 531 545 601 531 514 507 511 530 517 507 485 479 483 458 453 452 449 445 445 449 459 482 546 552 553 547 549 544 541 535 536 529 520 517 514 510 503 495 496 485 483 448 477 474 470 -9999 -9999 -9999 -9999 -9999 -9999 -9999 -9999 -9999 -9999 -9999 -9999 -9999 -9999 -9999 -9999 -9999 -9999 -9999 -9999 -9999 -9999 -9999 -9999 -9999 -9999 -9999 -9999 -9999 -9999 -9999 -9999 -9999 -9999 -9999 -9999 -9999 -9999 -9999 -9999 -9999 -9999 -9999
-9999 -9999 -9999 -9999 -9999 -9999 -9999 -9999 -9999 -9999 -9999 -9999 -9999 -9999 -9999 -9999 -9999 -9999 -9999 -9999 -9999 -9999 -9999 -9999 -9999 -9999 -9999 -9999 -9999 -9999 -9999 -9999 -9999 -9999 -9999 -9999 -9999 -9999 -9999 -9999 -9999 -9999 -9999 -9999 -9999 -9999 -9999 -9999 -9999 -9999 -9999 -9999 -9999 -9999 -9999 -9999 -9999 -9999 -9999 -9999 -9999 -9999 -9999 -9999 -9999 -9999 -9999 -9999 -9999 -9999 -9999 -9999 -9999 -9999 -9999 -9999 -9999 -9999 -9999 -9999 -9999 -9999 -9999 -9999 -9999 -9999 -9999 -9999 -9999 -9999 -9999 -9999 -9999 -9999 -9999 -9999 -9999 -9999 -9999 -9999 -9999 -9999 -9999 -9999 -9999 -9999 -9999 -9999 -9999 -9999 -9999 -9999 -9999 -9999 -9999 -9999 1115 1236 1174 1167 1189 1204 1236 1238 1233 1231 1213 1220 1249 1270 1248 1244 1246 1282 1268 1268 1268 1274 1285 1287 1276 1260 1275 1265 1263 1275 1274 1287 1291 1327 1420 1674 1283 1379 993 924 900 894 882 870 864 868 873 857 856 847 849 843 859 873 868 857 849 840 840 824 820 806 810 814 805 798 788 795 811 800 808 816 827 861 858 864 807 790 774 767 760 761 769 789 779 773 769 783 789 802 816 807 799 789 784 772 761 750 746 738 729 720 713 713 705 707 704 709 714 703 699 692 684 671 663 657 657 668 671 665 646 639 652 641 635 630 618 624 616 600 596 598 585 579 577 576 609 592 592 564 556 540 542 539 557 541 531 523 519 523 510 510 513 496 476 465 458 456 453 448 452 450 463 524 568 566 563 566 554 556 552 549 542 534 523 516 512 511 508 502 498 491 489 488 483 479 474 469 457 -9999 -9999 -9999 -9999 -9999 -9999 -9999 -9999 -9999 -9999 -9999 -9999 -9999 -9999 -9999 -9999 -9999 -9999 -9999 -9999 -9999 -9999 -9999 -9999 -9999 -9999 -9999 -9999 -9999 -9999 -9999 -9999 -9999 -9999 -9999 -9999 -9999 -9999 -9999 -9999 -9999 -9999
-9999 -9999 -9999 -9999 -9999 -9999 -9999 -9999 -9999 -9999 -9999 -9999 -9999 -9999 -9999 -9999 -9999 -9999 -9999 -9999 -9999 -9999 -9999 -9999 -9999 -9999 -9999 -9999 -9999 -9999 -9999 -9999 -9999 -9999 -9999 -9999 -9999 -9999 -9999 -9999 -9999 -9999 -9999 -9999 -9999 -9999 -9999 -9999 -9999 -9999 -9999 -9999 -9999 -9999 -9999 -9999 -9999 -9999 -9999 -9999 -9999 -9999 -9999 -9999 -9999 -9999 -9999 -9999 -9999 -9999 -9999 -9999 -9999 -9999 -9999 -9999 -9999 -9999 -9999 -9999 -9999 -9999 -9999 -9999 -9999 -9999 -9999 -9999 -9999 -9999 -9999 -9999 -9999 -9999 -9999 -9999 -9999 -9999 -9999 -9999 -9999 -9999 -9999 -9999 -9999 -9999 -9999 -9999 -9999 -9999 -9999 -9999 -9999 -9999 -9999 1127 1114 1181 1208 1176 1227 1241 1271 1248 1237 1233 1227 1232 1257 1280 1276 1266 1265 1271 1263 1257 1253 1273 1280 1261 1262 1256 1266 1253 1259 1254 1277 1273 1277 1305 1323 1470 1173 1020 964 931 919 903 885 882 878 874 879 864 868 867 858 857 863 873 875 863 859 860 844 837 819 811 822 831 812 799 794 806 813 814 868 871 878 872 872 871 820 795 785 766 767 773 775 793 785 781 779 780 793 805 815 817 803 794 790 777 766 752 744 741 730 723 724 720 712 709 715 714 718 704 698 694 684 678 671 662 676 667 675 663 654 654 657 655 641 626 619 631 615 614 597 615 604 595 585 583 596 603 663 572 557 561 563 552 535 533 537 526 519 507 499 493 484 477 470 462 464 455 454 451 463 475 483 554 580 575 570 563 560 560 554 543 538 475 389 377 388 508 505 443 497 493 490 485 475 367 317 321 442 -9999 -9999 -9999 -9999 -9999 -9999 -9999 -9999 -9999 -9999 -9999 -9999 -9999 -9999 -9999 -9999 -9999 -9999 -9999 -9999 -9999 -9999 -9999 -9999 -9999 -9999 -9999 -9999 -9999 -9999 -9999 -9999 -9999 -9999 -9999 -9999 -9999 -9999 -9999 -9999 -9999 -9999
-9999 -9999 -9999 -9999 -9999 -9999 -9999 -9999 -9999 -9999 -9999 -9999 -9999 -9999 -9999 -9999 -9999 -9999 -9999 -9999 -9999 -9999 -9999 -9999 -9999 -9999 -9999 -9999 -9999 -9999 -9999 -9999 -9999 -9999 -9999 -9999 -9999 -9999 -9999 -9999 -9999 -9999 -9999 -9999 -9999 -9999 -9999 -9999 -9999 -9999 -9999 -9999 -9999 -9999 -9999 -9999 -9999 -9999 -9999 -9999 -9999 -9999 -9999 -9999 -9999 -9999 -9999 -9999 -9999 -9999 -9999 -9999 -9999 -9999 -9999 -9999 -9999 -9999 -9999 -9999 -9999 -9999 -9999 -9999 -9999 -9999 -9999 -9999 -9999 -9999 -9999 -9999 -9999 -9999 -9999 -9999 -9999 -9999 -9999 -9999 -9999 -9999 -9999 -9999 -9999 -9999 -9999 -9999 -9999 -9999 -9999 -9999 -9999 -9999 -9999 1124 1161 1298 1219 1195 1221 1234 1273 1271 1257 1249 1251 1223 1246 1259 1277 1272 1260 1263 1258 1240 1262 1260 1270 1251 1253 1231 1244 1243 1245 1247 1263 1255 1273 1278 1284 1328 1331 1141 1086 961 944 929 913 902 896 882 883 879 882 869 870 877 878 888 893 883 885 994 860 832 822 816 828 834 817 808 806 815 810 834 875 881 891 897 889 878 836 798 789 772 770 770 782 802 795 789 789 783 789 810 818 810 799 792 780 772 768 758 746 742 732 727 725 719 720 708 722 726 723 712 706 697 688 680 674 676 681 680 673 660 666 670 663 651 652 645 626 638 619 610 627 629 605 593 595 604 581 582 642 581 563 539 543 540 524 537 521 517 511 503 491 487 484 472 470 468 463 460 454 464 569 568 570 573 589 583 573 566 566 555 552 541 535 472 397 377 364 378 498 359 349 342 368 322 307 306 307 -9999 -9999 -9999 -9999 -9999 -9999 -9999 -9999 -9999 -9999 -9999 -9999 -9999 -9999 -9999 -9999 -9999 -9999 -9999 -9999 -9999 -9999 -9999 -9999 -9999 -9999 -9999 -9999 -9999 -9999 -9999 -9999 -9999 -9999 -9999 -9999 -9999 -9999 -9999 -9999 -9999 -9999 -9999 -9999
-9999 -9999 -9999 -9999 -9999 -9999 -9999 -9999 -9999 -9999 -9999 -9999 -9999 -9999 -9999 -9999 -9999 -9999 -9999 -9999 -9999 -9999 -9999 -9999 -9999 -9999 -9999 -9999 -9999 -9999 -9999 -9999 -9999 -9999 -9999 -9999 -9999 -9999 -9999 -9999 -9999 -9999 -9999 -9999 -9999 -9999 -9999 -9999 -9999 -9999 -9999 -9999 -9999 -9999 -9999 -9999 -9999 -9999 -9999 -9999 -9999 -9999 -9999 -9999 -9999 -9999 -9999 -9999 -9999 -9999 -9999 -9999 -9999 -9999 -9999 -9999 -9999 -9999 -9999 -9999 -9999 -9999 -9999 -9999 -9999 -9999 -9999 -9999 -9999 -9999 -9999 -9999 -9999 -9999 -9999 -9999 -9999 -9999 -9999 -9999 -9999 -9999 -9999 -9999 -9999 -9999 -9999 -9999 -9999 -9999 -9999 -9999 -9999 -9999 -9999 1126 1161 1197 1299 1250 1263 1260 1276 1274 1256 1271 1252 1232 1242 1274 1267 1259 1251 1246 1250 1233 1241 1253 1257 1236 1230 1216 1219 1226 1232 1245 1242 1252 1259 1261 1275 1285 1289 1273 1238 1235 1048 978 944 920 906 901 902 892 891 880 882 895 900 914 929 914 917 917 859 842 825 825 826 842 829 823 818 819 816 849 873 882 895 900 893 888 874 804 783 775 774 778 784 794 798 803 795 796 785 798 812 808 797 789 783 776 762 755 746 738 738 740 737 724 713 712 727 731 728 712 708 695 692 683 681 678 695 692 675 674 676 683 675 664 650 642 634 630 623 613 645 631 611 604 644 627 573 561 588 560 554 546 530 525 515 515 505 518 500 493 488 484 481 475 471 471 467 463 460 467 519 572 574 579 582 582 573 568 561 551 549 535 531 528 518 479 360 351 353 344 335 321 315 305 311 308 -9999 -9999 -9999 -9999 -9999 -9999 -9999 -9999 -9999 -9999 -9999 -9999 -9999 -9999 -9999 -9999 -9999 -9999 -9999 -9999 -9999 -9999 -9999 -9999 -9999 -9999 -9999 -9999 -9999 -9999 -9999 -9999 -9999 -9999 -9999 -9999 -9999 -9999 -9999 -9999 -9999 -9999 -9999 -9999 -9999
-9999 -9999 -9999 -9999 -9999 -9999 -9999 -9999 -9999 -9999 -9999 -9999 -9999 -9999 -9999 -9999 -9999 -9999 -9999 -9999 -9999 -9999 -9999 -9999 -9999 -9999 -9999 -9999 -9999 -9999 -9999 -9999 -9999 -9999 -9999 -9999 -9999 -9999 -9999 -9999 -9999 -9999 -9999 -9999 -9999 -9999 -9999 -9999 -9999 -9999 -9999 -9999 -9999 -9999 -9999 -9999 -9999 -9999 -9999 -9999 -9999 -9999 -9999 -9999 -9999 -9999 -9999 -9999 -9999 -9999 -9999 -9999 -9999 -9999 -9999 -9999 -9999 -9999 -9999 -9999 -9999 -9999 -9999 -9999 -9999 -9999 -9999 -9999 -9999 -9999 -9999 -9999 -9999 -9999 -9999 -9999 -9999 -9999 -9999 -9999 -9999 -9999 -9999 -9999 -9999 -9999 -9999 -9999 -9999 -9999 -9999 -9999 -9999 -9999 -9999 1136 1198 1316 1424 1418 1423 1292 1284 1284 1277 1274 1267 1238 1263 1280 1269 1250 1241 1229 1245 1224 1234 1246 1251 1244 1216 1216 1239 1235 1235 1237 1244 1250 1260 1271 1273 1290 1338 1383 1604 1543 1502 1153 994 949 947 927 925 916 905 901 892 913 928 984 1115 1083 975 975 886 856 832 842 834 843 838 837 830 837 825 826 840 867 888 894 889 885 878 816 796 778 781 790 787 799 810 812 803 797 797 802 818 814 799 859 802 778 763 759 753 749 742 749 736 730 723 716 725 737 730 716 709 699 695 691 683 689 690 698 693 685 678 673 668 671 662 654 652 641 647 636 639 636 639 620 642 606 586 577 556 548 542 535 538 522 522 520 505 501 494 493 490 488 480 476 477 471 470 462 459 458 479 568 576 585 579 574 571 559 552 514 539 519 528 528 518 385 360 343 340 330 327 315 310 308 313 -9999 -9999 -9999 -9999 -9999 -9999 -9999 -9999 -9999 -9999 -9999 -9999 -9999 -9999 -9999 -9999 -9999 -9999 -9999 -9999 -9999 -9999 -9999 -9999 -9999 -9999 -9999 -9999 -9999 -9999 -9999 -9999 -9999 -9999 -9999 -9999 -9999 -9999 -9999 -9999 -9999 -9999 -9999 -9999 -9999 -9999
-9999 -9999 -9999 -9999 -9999 -9999 -9999 -9999 -9999 -9999 -9999 -9999 -9999 -9999 -9999 -9999 -9999 -9999 -9999 -9999 -9999 -9999 -9999 -9999 -9999 -9999 -9999 -9999 -9999 -9999 -9999 -9999 -9999 -9999 -9999 -9999 -9999 -9999 -9999 -9999 -9999 -9999 -9999 -9999 -9999 -9999 -9999 -9999 -9999 -9999 -9999 -9999 -9999 -9999 -9999 -9999 -9999 -9999 -9999 -9999 -9999 -9999 -9999 -9999 -9999 -9999 -9999 -9999 -9999 -9999 -9999 -9999 -9999 -9999 -9999 -9999 -9999 -9999 -9999 -9999 -9999 -9999 -9999 -9999 -9999 -9999 -9999 -9999 -9999 -9999 -9999 -9999 -9999 -9999 -9999 -9999 -9999 -9999 -9999 -9999 -9999 -9999 -9999 -9999 -9999 -9999 -9999 -9999 -9999 -9999 -9999 -9999 -9999 -9999 1137 1196 1325 1433 1424 1394 1378 1311 1311 1294 1297 1284 1258 1248 1269 1272 1260 1252 1242 1227 1223 1220 1225 1237 1246 1223 1218 1204 1227 1251 1251 1260 1247 1256 1261 1274 1284 1296 1335 1533 1649 1791 1390 1423 1100 1040 996 965 1095 947 931 910 907 926 943 982 1236 1402 1013 924 888 864 841 839 845 846 854 853 850 838 828 827 833 846 882 888 889 884 875 814 795 783 784 791 801 801 812 818 807 806 806 804 817 818 803 879 813 775 765 757 752 752 754 748 736 743 727 719 734 744 730 713 707 698 692 692 686 693 703 701 693 681 677 667 660 661 658 656 645 639 655 643 654 620 601 609 600 600 601 585 561 552 548 531 526 527 535 521 519 504 508 501 502 497 491 485 480 470 468 464 457 453 472 494 579 585 579 568 533 475 550 484 452 475 525 527 516 519 378 343 332 329 322 318 313 313 -9999 -9999 -9999 -9999 -9999 -9999 -9999 -9999 -9999 -9999 -9999 -9999 -9999 -9999 -9999 -9999 -9999 -9999 -9999 -9999 -9999 -9999 -9999 -9999 -9999 -9999 -9999 -9999 -9999 -9999 -9999 -9999 -9999 -9999 -9999 -9999 -9999 -9999 -9999 -9999 -9999 -9999 -9999 -9999 -9999 -9999 -9999
-9999 -9999 -9999 -9999 -9999 -9999 -9999 -9999 -9999 -9999 -9999 -9999 -9999 -9999 -9999 -9999 -9999 -9999 -9999 -9999 -9999 -9999 -9999 -9999 -9999 -9999 -9999 -9999 -9999 -9999 -9999 -9999 -9999 -9999 -9999 -9999 -9999 -9999 -9999 -9999 -9999 -9999 -9999 -9999 -9999 -9999 -9999 -9999 -9999 -9999 -9999 -9999 -9999 -9999 -9999 -9999 -9999 -9999 -9999 -9999 -9999 -9999 -9999 -9999 -9999 -9999 -9999 -9999 -9999 -9999 -9999 -9999 -9999 -9999 -9999 -9999 -9999 -9999 -9999 -9999 -9999 -9999 -9999 -9999 -9999 -9999 -9999 -9999 -9999 -9999 -9999 -9999 -9999 -9999 -9999 -9999 -9999 -9999 -9999 -9999 -9999 -9999 -9999 -9999 -9999 -9999 -9999 -9999 -9999 -9999 -9999 -9999 -9999 -9999 1139 1203 1431 1433 1429 1357 1340 1351 1330 1304 1287 1270 1268 1270 1274 1274 1265 1253 1246 1235 1215 1208 1218 1232 1236 1224 1207 1205 1228 1258 1264 1280 1268 1268 1268 1280 1286 1304 1328 1460 1624 1895 1560 1358 1362 1132 1074 1059 1052 988 955 928 925 963 984 977 1091 1259 1124 916 883 861 846 845 853 849 860 865 853 843 835 829 842 840 855 880 885 883 870 817 804 793 786 799 804 809 811 816 812 818 811 814 823 804 800 799 802 773 768 760 754 759 759 752 744 733 729 726 739 738 733 715 711 707 698 693 695 706 701 697 689 683 670 665 661 652 651 647 651 642 632 641 621 608 592 591 578 578 581 563 554 547 542 538 533 535 538 531 517 515 522 506 516 504 501 492 479 475 472 460 454 450 465 492 577 579 579 569 563 473 444 431 424 424 440 493 411 508 415 356 340 332 322 317 315 316 -9999 -9999 -9999 -9999 -9999 -9999 -9999 -9999 -9999 -9999 -9999 -9999 -9999 -9999 -9999 -9999 -9999 -9999 -9999 -9999 -9999 -9999 -9999 -9999 -9999 -9999 -9999 -9999 -9999 -9999 -9999 -9999 -9999 -9999 -9999 -9999 -9999 -9999 -9999 -9999 -9999 -9999 -9999 -9999 -9999 -9999 -9999
-9999 -9999 -9999 -9999 -9999 -9999 -9999 -9999 -9999 -9999 -9999 -9999 -9999 -9999 -9999 -9999 -9999 -9999 -9999 -9999 -9999 -9999 -9999 -9999 -9999 -9999 -9999 -9999 -9999 -9999 -9999 -9999 -9999 -9999 -9999 -9999 -9999 -9999 -9999 -9999 -9999 -9999 -9999 -9999 -9999 -9999 -9999 -9999 -9999 -9999 -9999 -9999 -9999 -9999 -9999 -9999 -9999 -9999 -9999 -9999 -9999 -9999 -9999 -9999 -9999 -9999 -9999 -9999 -9999 -9999 -9999 -9999 -9999 -9999 -9999 -9999 -9999 -9999 -9999 -9999 -9999 -9999 -9999 -9999 -9999 -9999 -9999 -9999 -9999 -9999 -9999 -9999 -9999 -9999 -9999 -9999 -9999 -9999 -9999 -9999 -9999 -9999 -9999 -9999 -9999 -9999 -9999 -9999 -9999 -9999 -9999 -9999 -9999 -9999 1158 1393 1429 1429 1429 1378 1336 1315 1314 1299 1281 1292 1278 1281 1266 1262 1255 1250 1234 1225 1217 1197 1213 1235 1226 1216 1204 1197 1225 1252 1252 1278 1279 1268 1290 1296 1300 1331 1335 1499 1706 2055 1839 1664 1476 1288 1188 1296 1164 1080 1009 939 939 1075 1060 1017 1017 983 950 910 879 858 852 851 860 856 865 867 858 846 844 840 843 856 849 878 878 878 842 877 823 804 791 796 819 824 817 825 819 828 823 828 819 807 791 784 832 779 776 761 762 781 765 753 745 739 734 728 746 740 729 724 718 712 701 697 707 704 696 691 688 685 677 667 659 653 647 645 644 639 627 630 626 607 593 585 574 572 562 562 562 566 565 555 540 531 548 537 527 524 528 521 523 518 525 497 477 466 469 467 450 447 465 451 460 459 519 560 553 532 529 459 425 405 398 403 503 390 387 367 348 338 327 321 320 321 -9999 -9999 -9999 -9999 -9999 -9999 -9999 -9999 -9999 -9999 -9999 -9999 -9999 -9999 -9999 -9999 -9999 -9999 -9999 -9999 -9999 -9999 -9999 -9999 -9999 -9999 -9999 -9999 -9999 -9999 -9999 -9999 -9999 -9999 -9999 -9999 -9999 -9999 -9999 -9999 -9999 -9999 -9999 -9999 -9999 -9999 -9999
-9999 -9999 -9999 -9999 -9999 -9999 -9999 -9999 -9999 -9999 -9999 -9999 -9999 -9999 -9999 -9999 -9999 -9999 -9999 -9999 -9999 -9999 -9999 -9999 -9999 -9999 -9999 -9999 -9999 -9999 -9999 -9999 -9999 -9999 -9999 -9999 -9999 -9999 -9999 -9999 -9999 -9999 -9999 -9999 -9999 1493 1522 1450 1588 -9999 -9999 -9999 -9999 -9999 -9999 -9999 -9999 -9999 -9999 -9999 -9999 -9999 -9999 -9999 -9999 -9999 -9999 -9999 -9999 -9999 -9999 -9999 -9999 -9999 -9999 -9999 -9999 -9999 -9999 -9999 -9999 -9999 -9999 -9999 -9999 -9999 -9999 -9999 -9999 -9999 -9999 -9999 -9999 -9999 -9999 -9999 -9999 -9999 -9999 -9999 -9999 -9999 -9999 -9999 -9999 -9999 -9999 -9999 -9999 -9999 -9999 -9999 -9999 1169 1285 1430 1423 1404 1432 1427 1428 1364 1313 1295 1294 1303 1284 1312 1276 1251 1239 1246 1243 1223 1209 1196 1197 1219 1206 1207 1190 1209 1212 1234 1249 1303 1299 1286 1293 1298 1289 1334 1331 1434 1773 2141 2185 2040 1542 1420 1385 1449 1581 1472 1299 982 950 1197 1207 1063 1053 1063 924 898 875 866 856 851 864 868 869 873 861 854 850 842 852 869 868 871 871 867 873 1019 830 807 796 809 813 833 829 832 831 836 834 828 823 807 790 811 796 781 773 773 773 771 758 755 744 739 740 732 750 745 736 725 717 711 713 710 709 699 696 682 687 673 678 676 665 663 646 638 633 635 632 610 621 610 604 589 578 579 574 574 567 576 565 559 542 542 555 539 543 532 532 536 542 527 524 491 476 462 453 452 459 441 445 447 432 431 431 441 475 455 463 475 460 420 395 386 394 475 372 364 351 335 328 322 318 -9999 -9999 -9999 -9999 -9999 -9999 -9999 -9999 -9999 -9999 -9999 -9999 -9999 -9999 -9999 -9999 -9999 -9999 -9999 -9999 -9999 -9999 -9999 -9999 -9999 -9999 -9999 -9999 -9999 -9999 -9999 -9999 -9999 -9999 -9999 -9999 -9999 -9999 -9999 -9999 -9999 -9999 -9999 -9999 -9999 -9999 -9999 -9999
-9999 -9999 -9999 -9999 -9999 -9999 -9999 -9999 -9999 -9999 -9999 -9999 -9999 -9999 -9999 -9999 -9999 -9999 -9999 -9999 -9999 -9999 -9999 -9999 -9999 -9999 -9999 -9999 -9999 -9999 -9999 -9999 -9999 -9999 -9999 -9999 -9999 -9999 -9999 -9999 -9999 -9999 -9999 -9999 -9999 1511 1523 1518 1634 1511 1656 1779 1803 1657 -9999 -9999 -9999 -9999 -9999 -9999 -9999 -9999 -9999 -9999 -9999 -9999 -9999 -9999 -9999 -9999 -9999 -9999 -9999 -9999 -9999 -9999 -9999 -9999 -9999 -9999 -9999 -9999 -9999 -9999 -9999 -9999 -9999 -9999 -9999 -9999 -9999 -9999 -9999 -9999 -9999 -9999 -9999 -9999 -9999 -9999 -9999 -9999 -9999 -9999 -9999 -9999 -9999 -9999 -9999 -9999 -9999 -9999 -9999 1164 1377 1418 1333 1310 1426 1402 1425 1424 1330 1309 1311 1319 1295 1302 1273 1254 1237 1228 1228 1223 1205 1192 1182 1201 1189 1190 1187 1209 1238 1258 1272 1288 1334 1305 1294 1289 1293 1339 1425 1504 1740 1922 2336 2064 1756 1677 1706 1684 1702 1311 1144 1007 964 1021 1272 1298 1159 1243 948 900 876 868 863 860 859 870 880 878 866 857 855 848 861 882 875 873 857 891 945 850 821 805 798 801 815 829 855 860 845 849 834 823 812 805 799 801 794 825 776 784 774 763 757 754 749 748 745 737 749 748 735 728 724 716 711 707 704 702 687 681 680 674 661 663 665 652 645 634 631 619 626 609 608 602 599 606 600 588 578 570 574 560 553 555 553 549 557 553 555 553 546 523 519 499 503 482 477 461 450 441 439 435 433 443 434 426 421 429 430 436 471 432 436 485 508 428 380 370 365 354 353 339 329 322 326 325 -9999 -9999 -9999 -9999 -9999 -9999 -9999 -9999 -9999 -9999 -9999 -9999 -9999 -9999 -9999 -9999 -9999 -9999 -9999 -9999 -9999 -9999 -9999 -9999 -9999 -9999 -9999 -9999 -9999 -9999 -9999 -9999 -9999 -9999 -9999 -9999 -9999 -9999 -9999 -9999 -9999 -9999 -9999 -9999 -9999 -9999 -9999
-9999 -9999 -9999 -9999 -9999 -9999 -9999 -9999 -9999 -9999 -9999 -9999 -9999 -9999 -9999 -9999 -9999 -9999 -9999 -9999 -9999 -9999 -9999 -9999 -9999 -9999 -9999 -9999 -9999 -9999 -9999 -9999 -9999 -9999 -9999 -9999 -9999 -9999 -9999 -9999 -9999 -9999 -9999 -9999 1416 1556 1534 1573 1646 1570 1681 1590 1726 1968 1772 1822 1937 1968 -9999 -9999 -9999 -9999 -9999 -9999 -9999 -9999 -9999 -9999 -9999 -9999 -9999 -9999 -9999 -9999 -9999 -9999 -9999 -9999 -9999 -9999 -9999 -9999 -9999 -9999 -9999 -9999 -9999 -9999 -9999 -9999 -9999 -9999 -9999 -9999 -9999 -9999 -9999 -9999 -9999 -9999 -9999 -9999 -9999 -9999 -9999 -9999 -9999 -9999 -9999 -9999 -9999 -9999 -9999 1233 1216 1382 1310 1284 1323 1389 1402 1364 1340 1329 1323 1312 1312 1315 1270 1254 1260 1233 1217 1209 1219 1203 1189 1176 1174 1180 1202 1214 1228 1240 1258 1284 1311 1291 1287 1266 1287 1323 1518 1406 1738 1900 2188 2176 2123 2150 2029 2367 1932 1703 1213 1031 987 1012 1166 1473 1151 1047 977 898 887 877 871 870 866 878 881 884 872 868 856 859 863 873 861 856 848 1000 855 831 820 806 806 806 825 847 870 954 859 852 850 846 825 813 811 806 794 790 784 809 775 767 760 759 758 755 748 745 754 750 742 724 719 712 705 697 697 692 695 681 672 670 666 654 653 649 638 633 632 629 623 610 600 601 596 598 590 578 577 567 568 566 561 551 556 562 571 552 543 527 519 531 511 508 489 479 476 457 451 434 427 430 421 431 432 418 413 414 408 416 413 417 415 411 403 389 413 371 358 349 345 340 328 324 319 -9999 -9999 -9999 -9999 -9999 -9999 -9999 -9999 -9999 -9999 -9999 -9999 -9999 -9999 -9999 -9999 -9999 -9999 -9999 -9999 -9999 -9999 -9999 -9999 -9999 -9999 -9999 -9999 -9999 -9999 -9999 -9999 -9999 -9999 -9999 -9999 -9999 -9999 -9999 -9999 -9999 -9999 -9999 -9999 -9999 -9999 -9999 -9999
-9999 -9999 -9999 -9999 -9999 -9999 -9999 -9999 -9999 -9999 -9999 -9999 -9999 -9999 -9999 -9999 -9999 -9999 -9999 -9999 -9999 -9999 -9999 -9999 -9999 -9999 -9999 -9999 -9999 -9999 -9999 -9999 -9999 -9999 -9999 -9999 -9999 -9999 -9999 -9999 -9999 -9999 -9999 -9999 1464 1588 1620 1589 1704 1605 1683 1601 1707 1781 1927 1926 1964 1956 2008 2004 2023 -9999 -9999 -9999 -9999 -9999 -9999 -9999 -9999 -9999 -9999 -9999 -9999 -9999 -9999 -9999 -9999 -9999 -9999 -9999 -9999 -9999 -9999 -9999 -9999 -9999 -9999 -9999 -9999 -9999 -9999 -9999 -9999 -9999 -9999 -9999 -9999 -9999 -9999 -9999 -9999 -9999 -9999 -9999 -9999 -9999 -9999 -9999 -9999 -9999 -9999 -9999 1180 1301 1266 1414 1308 1273 1289 1409 1389 1401 1408 1423 1353 1322 1305 1290 1279 1272 1257 1240 1225 1208 1203 1191 1172 1165 1170 1197 1216 1237 1243 1259 1273 1267 1286 1293 1259 1265 1279 1319 1382 1567 1606 1700 1906 2257 2526 2431 2396 2206 2031 1599 1229 1058 993 970 999 1074 1086 962 927 897 893 881 882 878 876 880 885 895 879 871 874 870 860 865 856 843 839 836 822 819 812 809 812 809 822 840 868 875 869 885 872 964 833 822 819 809 803 794 795 794 777 772 763 767 764 758 749 751 764 753 734 723 717 705 705 696 688 684 689 682 673 676 660 656 647 645 633 629 620 619 611 608 618 612 591 582 581 598 587 576 568 559 569 564 573 564 555 555 548 537 524 505 508 494 488 471 465 452 446 435 427 423 420 420 431 425 411 404 396 397 396 398 396 395 390 379 392 364 357 344 342 334 329 325 327 -9999 -9999 -9999 -9999 -9999 -9999 -9999 -9999 -9999 -9999 -9999 -9999 -9999 -9999 -9999 -9999 -9999 -9999 -9999 -9999 -9999 -9999 -9999 -9999 -9999 -9999 -9999 -9999 -9999 -9999 -9999 -9999 -9999 -9999 -9999 -9999 -9999 -9999 -9999 -9999 -9999 -9999 -9999 -9999 -9999 -9999 -9999 -9999
-9999 -9999 -9999 -9999 -9999 -9999 -9999 -9999 -9999 -9999 -9999 -9999 -9999 -9999 -9999 -9999 -9999 -9999 -9999 -9999 -9999 -9999 -9999 -9999 -9999 -9999 -9999 -9999 -9999 -9999 -9999 -9999 -9999 -9999 -9999 -9999 -9999 -9999 -9999 -9999 -9999 -9999 -9999 1429 1396 1493 1532 1563 1754 1650 1719 1732 1660 1748 1913 1957 1950 2009 2020 2013 -9999 -9999 -9999 -9999 -9999 -9999 -9999 -9999 -9999 -9999 -9999 -9999 -9999 -9999 -9999 -9999 -9999 -9999 -9999 -9999 -9999 -9999 -9999 -9999 -9999 -9999 -9999 -9999 -9999 -9999 -9999 -9999 -9999 -9999 -9999 -9999 -9999 -9999 -9999 -9999 -9999 -9999 -9999 -9999 -9999 -9999 -9999 -9999 -9999 -9999 -9999 -9999 1175 1382 1371 1417 1303 1285 1260 1279 1280 1270 1283 1280 1287 1410 1321 1320 1305 1307 1258 1236 1219 1213 1193 1193 1168 1171 1195 1208 1220 1230 1234 1228 1252 1239 1258 1295 1264 1241 1277 1312 1364 1605 1517 1786 1851 1985 2139 1949 2017 1847 1881 1409 1160 1036 989 970 954 950 937 921 914 902 901 901 891 891 887 881 893 890 883 878 869 863 853 854 845 834 831 827 821 818 814 825 816 819 822 836 851 859 881 1030 885 851 835 829 821 820 813 797 787 782 776 770 769 775 766 759 760 757 754 741 734 729 720 708 709 698 689 682 681 681 674 662 659 663 646 638 634 630 618 616 630 622 622 621 596 606 607 601 588 581 571 577 587 584 576 566 559 540 537 519 521 511 487 493 486 468 460 461 449 438 435 416 414 408 422 413 403 404 406 392 386 384 389 406 377 369 366 354 348 349 340 331 327 325 331 -9999 -9999 -9999 -9999 -9999 -9999 -9999 -9999 -9999 -9999 -9999 -9999 -9999 -9999 -9999 -9999 -9999 -9999 -9999 -9999 -9999 -9999 -9999 -9999 -9999 -9999 -9999 -9999 -9999 -9999 -9999 -9999 -9999 -9999 -9999 -9999 -9999 -9999 -9999 -9999 -9999 -9999 -9999 -9999 -9999 -9999 -9999 -9999
-9999 -9999 -9999 -9999 -9999 -9999 -9999 -9999 -9999 -9999 -9999 -9999 -9999 -9999 -9999 -9999 -9999 -9999 -9999 -9999 -9999 -9999 -9999 -9999 -9999 -9999 -9999 -9999 -9999 -9999 -9999 -9999 -9999 -9999 -9999 -9999 -9999 -9999 -9999 -9999 -9999 -9999 1512 1536 1580 1518 1522 1572 1625 1838 1688 1809 1672 1778 1966 1910 1983 2023 2028 -9999 -9999 -9999 -9999 -9999 -9999 -9999 -9999 -9999 -9999 -9999 -9999 -9999 -9999 -9999 -9999 -9999 -9999 -9999 -9999 -9999 -9999 -9999 -9999 -9999 -9999 -9999 -9999 -9999 -9999 -9999 -9999 -9999 -9999 -9999 -9999 -9999 -9999 -9999 -9999 -9999 -9999 -9999 -9999 -9999 -9999 -9999 -9999 -9999 -9999 -9999 -9999 -9999 1174 1388 1352 1354 1311 1296 1258 1247 1239 1236 1230 1230 1233 1255 1387 1386 1308 1299 1257 1230 1215 1202 1188 1185 1175 1152 1176 1196 1210 1216 1214 1208 1226 1221 1246 1272 1261 1236 1268 1298 1352 1451 1717 1699 1875 1942 1793 1758 1756 1509 1620 1459 1246 1014 978 964 948 937 923 931 941 942 942 927 910 899 897 889 898 891 881 874 868 859 851 848 843 836 834 836 823 829 827 836 824 828 834 843 863 859 885 903 863 853 848 903 828 814 807 804 794 790 783 773 780 775 770 769 768 762 757 743 736 725 721 716 711 699 697 686 678 671 669 658 657 652 653 645 634 626 627 640 640 637 618 607 610 615 602 595 586 584 585 593 589 576 561 565 547 534 532 529 502 496 482 480 473 465 452 451 448 433 432 425 418 407 410 405 401 398 393 394 389 381 375 400 371 364 355 348 343 341 338 335 331 330 -9999 -9999 -9999 -9999 -9999 -9999 -9999 -9999 -9999 -9999 -9999 -9999 -9999 -9999 -9999 -9999 -9999 -9999 -9999 -9999 -9999 -9999 -9999 -9999 -9999 -9999 -9999 -9999 -9999 -9999 -9999 -9999 -9999 -9999 -9999 -9999 -9999 -9999 -9999 -9999 -9999 -9999 -9999 -9999 -9999 -9999 -9999 -9999 -9999
-9999 -9999 -9999 -9999 -9999 -9999 -9999 -9999 -9999 -9999 -9999 -9999 -9999 -9999 -9999 -9999 -9999 -9999 -9999 -9999 -9999 -9999 -9999 -9999 -9999 -9999 -9999 -9999 -9999 -9999 -9999 -9999 -9999 -9999 -9999 -9999 -9999 -9999 -9999 -9999 -9999 1523 1474 1630 1656 1595 1513 1582 1587 1777 1711 1860 1711 1805 1840 1893 2030 2031 -9999 -9999 -9999 -9999 -9999 -9999 -9999 -9999 -9999 -9999 -9999 -9999 -9999 -9999 -9999 -9999 -9999 -9999 -9999 -9999 -9999 -9999 -9999 -9999 -9999 -9999 -9999 -9999 -9999 -9999 -9999 -9999 -9999 -9999 -9999 -9999 -9999 -9999 -9999 -9999 -9999 -9999 -9999 -9999 -9999 -9999 -9999 -9999 -9999 -9999 -9999 -9999 -9999 -9999 1215 1401 1331 1311 1301 1301 1259 1240 1227 1215 1205 1200 1209 1218 1226 1239 1293 1296 1259 1230 1221 1206 1193 1169 1174 1146 1172 1176 1201 1204 1187 1193 1194 1220 1228 1253 1264 1225 1237 1266 1296 1351 1560 1489 1580 1721 1659 1660 1531 1319 1384 1257 1060 989 977 960 952 975 967 959 1168 1232 993 948 921 913 899 900 900 891 886 875 865 861 858 854 846 839 844 835 831 835 845 837 830 842 843 841 851 860 875 868 869 872 874 862 839 820 814 809 801 797 792 783 786 780 771 776 765 755 758 742 740 730 714 707 707 697 687 687 680 672 680 663 668 652 651 641 636 635 650 760 662 631 615 618 624 610 604 603 604 602 600 587 588 574 558 555 543 527 521 522 499 499 485 466 457 459 458 453 439 431 426 421 411 408 399 398 398 393 388 389 387 374 373 369 358 356 353 344 343 338 335 334 328 -9999 -9999 -9999 -9999 -9999 -9999 -9999 -9999 -9999 -9999 -9999 -9999 -9999 -9999 -9999 -9999 -9999 -9999 -9999 -9999 -9999 -9999 -9999 -9999 -9999 -9999 -9999 -9999 -9999 -9999 -9999 -9999 -9999 -9999 -9999 -9999 -9999 -9999 -9999 -9999 -9999 -9999 -9999 -9999 -9999 -9999 -9999 -9999 -9999 -9999
-9999 -9999 -9999 -9999 -9999 -9999 -9999 -9999 -9999 -9999 -9999 -9999 -9999 -9999 -9999 -9999 -9999 -9999 -9999 -9999 -9999 -9999 -9999 -9999 -9999 -9999 -9999 -9999 -9999 -9999 -9999 -9999 -9999 -9999 -9999 -9999 -9999 -9999 -9999 -9999 1446 1431 1530 1619 1689 1656 1535 1546 1573 1637 1637 1867 1765 1735 1766 1856 1993 -9999 -9999 -9999 -9999 -9999 -9999 -9999 -9999 -9999 -9999 -9999 -9999 -9999 -9999 -9999 -9999 -9999 -9999 -9999 -9999 -9999 -9999 -9999 -9999 -9999 -9999 -9999 -9999 -9999 -9999 -9999 -9999 -9999 -9999 -9999 -9999 -9999 -9999 -9999 -9999 -9999 -9999 -9999 -9999 -9999 -9999 -9999 -9999 -9999 -9999 -9999 -9999 -9999 -9999 -9999 1210 1364 1314 1290 1287 1298 1262 1249 1226 1224 1222 1200 1200 1213 1201 1213 1227 1235 1350 1272 1260 1236 1196 1178 1156 1151 1155 1181 1189 1194 1170 1176 1171 1196 1227 1234 1243 1224 1226 1251 1274 1303 1335 1554 1426 1550 1411 1454 1440 1244 1181 1106 1006 1009 976 975 1006 1157 1064 992 1137 1047 995 956 928 918 909 910 903 891 885 877 870 866 855 851 848 854 845 836 835 837 851 843 834 842 851 851 862 871 883 891 895 900 902 874 845 822 824 807 799 790 797 801 807 785 788 774 760 756 747 751 740 730 717 710 702 696 689 685 680 677 673 664 659 649 644 640 635 633 656 697 657 635 620 629 630 625 613 617 611 600 597 589 577 576 573 556 544 551 532 515 505 506 498 480 475 477 458 456 441 430 430 425 410 407 405 400 394 394 386 385 381 373 370 364 366 359 352 348 345 345 336 331 -9999 -9999 -9999 -9999 -9999 -9999 -9999 -9999 -9999 -9999 -9999 -9999 -9999 -9999 -9999 -9999 -9999 -9999 -9999 -9999 -9999 -9999 -9999 -9999 -9999 -9999 -9999 -9999 -9999 -9999 -9999 -9999 -9999 -9999 -9999 -9999 -9999 -9999 -9999 -9999 -9999 -9999 -9999 -9999 -9999 -9999 -9999 -9999 -9999 -9999 -9999
-9999 -9999 -9999 -9999 -9999 -9999 -9999 -9999 -9999 -9999 -9999 -9999 -9999 -9999 -9999 -9999 -9999 -9999 -9999 -9999 -9999 -9999 -9999 -9999 -9999 -9999 -9999 -9999 -9999 -9999 -9999 -9999 -9999 -9999 -9999 -9999 -9999 -9999 -9999 1500 1458 1472 1570 1597 1705 1667 1573 1671 1655 1606 1636 1721 1809 1846 1900 1975 2022 -9999 -9999 -9999 -9999 -9999 -9999 -9999 -9999 -9999 -9999 -9999 -9999 -9999 -9999 -9999 -9999 -9999 -9999 -9999 -9999 -9999 -9999 -9999 -9999 -9999 -9999 -9999 -9999 -9999 -9999 -9999 -9999 -9999 -9999 -9999 -9999 -9999 -9999 -9999 -9999 -9999 -9999 -9999 -9999 -9999 -9999 -9999 -9999 -9999 -9999 -9999 -9999 -9999 -9999 1215 1234 1414 1307 1285 1277 1284 1262 1243 1230 1229 1213 1199 1184 1198 1187 1193 1191 1203 1215 1247 1377 1236 1207 1203 1168 1137 1144 1154 1174 1161 1172 1156 1170 1195 1214 1214 1222 1218 1210 1233 1254 1275 1285 1309 1334 1316 1306 1305 1253 1215 1307 1092 1222 1270 1013 1001 1168 1227 1068 1014 1059 1249 1005 1007 939 927 916 907 898 898 891 880 879 867 860 857 862 854 844 850 843 845 855 852 842 849 858 870 880 898 916 934 943 939 932 953 860 825 806 810 799 787 780 791 812 794 774 764 760 750 741 741 733 725 717 710 700 705 693 693 687 687 682 670 663 651 652 656 643 643 645 726 664 635 634 646 630 629 618 606 597 591 592 588 580 566 567 556 553 545 532 522 516 513 502 498 483 481 473 459 447 449 440 423 424 410 408 401 391 385 387 384 382 376 374 372 369 364 357 355 358 355 339 -9999 -9999 -9999 -9999 -9999 -9999 -9999 -9999 -9999 -9999 -9999 -9999 -9999 -9999 -9999 -9999 -9999 -9999 -9999 -9999 -9999 -9999 -9999 -9999 -9999 -9999 -9999 -9999 -9999 -9999 -9999 -9999 -9999 -9999 -9999 -9999 -9999 -9999 -9999 -9999 -9999 -9999 -9999 -9999 -9999 -9999 -9999 -9999 -9999 -9999 -9999 -9999
-9999 -9999 -9999 -9999 -9999 -9999 -9999 -9999 -9999 -9999 -9999 -9999 -9999 -9999 -9999 -9999 -9999 -9999 -9999 -9999 -9999 -9999 -9999 -9999 -9999 -9999 -9999 -9999 -9999 -9999 -9999 -9999 -9999 -9999 -9999 -9999 -9999 -9999 -9999 -9999 -9999 -9999 -9999 1579 1622 1668 1675 1858 1759 1679 1730 1925 1892 1837 1781 1902 2049 -9999 -9999 -9999 -9999 -9999 -9999 -9999 -9999 -9999 -9999 -9999 -9999 -9999 -9999 -9999 -9999 -9999 -9999 -9999 -9999 -9999 -9999 -9999 -9999 -9999 -9999 -9999 -9999 -9999 -9999 -9999 -9999 -9999 -9999 -9999 -9999 -9999 -9999 -9999 -9999 -9999 -9999 -9999 -9999 -9999 -9999 -9999 -9999 -9999 -9999 -9999 -9999 -9999 -9999 1197 1261 1412 1304 1283 1269 1264 1260 1246 1246 1228 1208 1191 1186 1176 1170 1172 1171 1180 1192 1232 1315 1242 1286 1234 1176 1145 1135 1170 1167 1147 1142 1130 1151 1167 1180 1206 1202 1204 1199 1215 1225 1243 1255 1280 1294 1284 1274 1292 1640 1605 1532 1193 1188 1366 1043 1020 1078 1056 1042 1011 1037 1062 971 952 971 952 937 923 910 900 889 895 883 874 866 867 868 859 858 855 845 845 862 856 848 860 876 875 900 926 949 976 1111 1004 957 970 869 831 807 800 791 787 778 787 799 791 785 765 758 748 738 734 734 724 721 711 710 712 705 701 691 688 671 674 660 658 665 660 663 645 646 674 661 644 629 622 621 626 629 623 607 604 582 576 569 574 553 550 543 542 541 536 528 528 515 497 512 489 485 464 458 455 435 433 435 415 413 405 394 389 383 389 388 383 383 380 380 374 364 370 364 359 339 -9999 -9999 -9999 -9999 -9999 -9999 -9999 -9999 -9999 -9999 -9999 -9999 -9999 -9999 -9999 -9999 -9999 -9999 -9999 -9999 -9999 -9999 -9999 -9999 -9999 -9999 -9999 -9999 -9999 -9999 -9999 -9999 -9999 -9999 -9999 -9999 -9999 -9999 -9999 -9999 -9999 -9999 -9999 -9999 -9999 -9999 -9999 -9999 -9999 -9999 -9999 -9999
-9999 -9999 -9999 -9999 -9999 -9999 -9999 -9999 -9999 -9999 -9999 -9999 -9999 -9999 -9999 -9999 -9999 -9999 -9999 -9999 -9999 -9999 -9999 -9999 -9999 -9999 -9999 -9999 -9999 -9999 -9999 -9999 -9999 -9999 -9999 -9999 -9999 -9999 -9999 -9999 -9999 -9999 -9999 1570 1595 1603 1611 1649 1627 1622 1649 1727 1711 1739 1874 1985 2069 -9999 -9999 -9999 -9999 -9999 -9999 -9999 -9999 -9999 -9999 -9999 -9999 -9999 -9999 -9999 -9999 -9999 -9999 -9999 -9999 -9999 -9999 -9999 -9999 -9999 -9999 -9999 -9999 -9999 -9999 -9999 -9999 -9999 -9999 -9999 -9999 -9999 -9999 -9999 -9999 -9999 -9999 -9999 -9999 -9999 -9999 -9999 -9999 -9999 -9999 -9999 -9999 -9999 -9999 1220 1273 1411 1299 1281 1271 1258 1249 1246 1241 1228 1212 1210 1208 1190 1182 1168 1158 1168 1185 1220 1368 1224 1207 1202 1175 1146 1120 1149 1143 1144 1117 1120 1140 1155 1187 1201 1185 1188 1183 1192 1213 1229 1237 1256 1260 1270 1251 1276 1351 1655 1426 1214 1120 1322 1050 1029 1020 1015 996 985 988 974 988 1073 1012 1023 975 950 926 908 901 892 885 875 872 879 872 866 857 853 852 848 859 859 856 870 889 895 910 936 1008 1130 1353 1028 978 1029 876 830 809 803 790 783 774 770 779 778 774 774 765 750 747 744 732 730 724 721 717 714 705 692 693 695 689 677 671 671 668 680 663 651 660 653 645 649 633 626 613 620 611 612 602 605 591 589 579 570 569 570 558 546 544 538 533 530 517 517 508 508 491 472 464 444 434 430 430 415 400 389 388 377 374 376 387 377 384 374 378 365 361 350 355 348 340 -9999 -9999 -9999 -9999 -9999 -9999 -9999 -9999 -9999 -9999 -9999 -9999 -9999 -9999 -9999 -9999 -9999 -9999 -9999 -9999 -9999 -9999 -9999 -9999 -9999 -9999 -9999 -9999 -9999 -9999 -9999 -9999 -9999 -9999 -9999 -9999 -9999 -9999 -9999 -9999 -9999 -9999 -9999 -9999 -9999 -9999 -9999 -9999 -9999 -9999 -9999 -9999
-9999 -9999 -9999 -9999 -9999 -9999 -9999 -9999 -9999 -9999 -9999 -9999 -9999 -9999 -9999 -9999 -9999 -9999 -9999 -9999 -9999 -9999 -9999 -9999 -9999 -9999 -9999 -9999 -9999 -9999 -9999 -9999 -9999 -9999 -9999 -9999 -9999 -9999 -9999 -9999 -9999 -9999 -9999 -9999 1584 1587 1595 1596 1597 1609 1622 1679 1674 1792 1862 2036 2076 -9999 -9999 -9999 -9999 -9999 -9999 -9999 -9999 -9999 -9999 -9999 -9999 -9999 -9999 -9999 -9999 -9999 -9999 -9999 -9999 -9999 -9999 -9999 -9999 -9999 -9999 -9999 -9999 -9999 -9999 -9999 -9999 -9999 -9999 -9999 -9999 -9999 -9999 -9999 -9999 -9999 -9999 -9999 -9999 -9999 -9999 -9999 -9999 -9999 -9999 -9999 -9999 -9999 -9999 1238 1270 1304 1292 1278 1275 1259 1251 1262 1243 1230 1219 1210 1193 1181 1171 1191 1165 1152 1170 1203 1267 1227 1187 1162 1137 1123 1109 1142 1133 1122 1119 1099 1125 1131 1161 1174 1167 1190 1177 1188 1202 1205 1216 1238 1230 1226 1231 1271 1639 1567 1531 1239 1123 1131 1058 1034 1017 1006 995 978 993 1006 1023 1360 1421 1231 1021 977 945 925 911 890 883 882 881 885 874 871 862 858 856 849 863 863 860 873 889 906 933 961 1091 1286 1529 1062 995 972 882 843 811 798 791 786 777 768 766 768 765 769 760 751 746 750 741 734 737 731 719 713 703 701 704 689 687 675 672 668 684 682 667 664 668 656 640 632 627 624 614 613 603 603 590 594 610 593 584 575 574 565 551 554 558 549 540 539 530 528 512 502 491 478 468 453 425 419 430 412 400 380 371 372 371 370 373 362 380 360 363 -9999 356 352 343 333 -9999 -9999 -9999 -9999 -9999 -9999 -9999 -9999 -9999 -9999 -9999 -9999 -9999 -9999 -9999 -9999 -9999 -9999 -9999 -9999 -9999 -9999 -9999 -9999 -9999 -9999 -9999 -9999 -9999 -9999 -9999 -9999 -9999 -9999 -9999 -9999 -9999 -9999 -9999 -9999 -9999 -9999 -9999 -9999 -9999 -9999 -9999 -9999 -9999 -9999 -9999 -9999 -9999
-9999 -9999 -9999 -9999 -9999 -9999 -9999 -9999 -9999 -9999 -9999 -9999 -9999 -9999 -9999 -9999 -9999 -9999 -9999 -9999 -9999 -9999 -9999 -9999 -9999 -9999 -9999 -9999 -9999 -9999 -9999 -9999 -9999 -9999 -9999 -9999 -9999 -9999 -9999 -9999 -9999 -9999 -9999 -9999 -9999 1569 1572 1586 1595 1609 1628 1646 1679 1791 1753 2000 2084 -9999 -9999 -9999 -9999 -9999 -9999 -9999 -9999 -9999 -9999 -9999 -9999 -9999 -9999 -9999 -9999 -9999 -9999 -9999 -9999 -9999 -9999 -9999 -9999 -9999 -9999 -9999 -9999 -9999 -9999 -9999 -9999 -9999 -9999 -9999 -9999 -9999 -9999 -9999 -9999 -9999 -9999 -9999 -9999 -9999 -9999 -9999 -9999 -9999 -9999 -9999 -9999 -9999 -9999 -9999 1307 1283 1280 1271 1266 1248 1236 1245 1252 1240 1224 1217 1192 1172 1159 1173 1162 1143 1163 1203 1254 1292 1189 1169 1160 1144 1098 1113 1115 1107 1096 1088 1103 1127 1145 1157 1151 1155 1172 1180 1190 1185 1190 1214 1206 1201 1211 1229 1382 1537 1380 1355 1107 1073 1051 1041 1027 1012 996 997 1031 1067 1252 1238 1570 1411 1057 1004 964 947 924 902 891 888 900 891 881 870 869 868 865 860 863 873 866 879 894 913 946 976 1160 1431 1585 1204 987 1002 885 847 810 799 788 779 775 764 759 761 755 759 760 743 741 742 745 744 737 732 725 721 714 707 696 695 694 688 690 688 690 687 670 669 656 645 637 639 626 620 610 599 598 588 578 583 593 589 580 563 566 568 556 559 551 540 530 522 526 515 501 488 487 482 462 444 449 410 402 419 396 379 375 372 371 368 360 363 -9999 361 384 -9999 -9999 -9999 347 346 -9999 -9999 -9999 -9999 -9999 -9999 -9999 -9999 -9999 -9999 -9999 -9999 -9999 -9999 -9999 -9999 -9999 -9999 -9999 -9999 -9999 -9999 -9999 -9999 -9999 -9999 -9999 -9999 -9999 -9999 -9999 -9999 -9999 -9999 -9999 -9999 -9999 -9999 -9999 -9999 -9999 -9999 -9999 -9999 -9999 -9999 -9999 -9999 -9999 -9999 -9999 -9999 -9999
-9999 -9999 -9999 -9999 -9999 -9999 -9999 -9999 -9999 -9999 -9999 -9999 -9999 -9999 -9999 -9999 -9999 -9999 -9999 -9999 -9999 -9999 -9999 -9999 -9999 -9999 -9999 -9999 -9999 -9999 -9999 -9999 -9999 -9999 -9999 -9999 -9999 -9999 -9999 -9999 -9999 -9999 -9999 -9999 -9999 -9999 -9999 -9999 1593 1610 1624 1655 1837 1829 1822 2036 2081 -9999 -9999 -9999 -9999 -9999 -9999 -9999 -9999 -9999 -9999 -9999 -9999 -9999 -9999 -9999 -9999 -9999 -9999 -9999 -9999 -9999 -9999 -9999 -9999 -9999 -9999 -9999 -9999 -9999 -9999 -9999 -9999 -9999 -9999 -9999 -9999 -9999 -9999 -9999 -9999 -9999 -9999 -9999 -9999 -9999 -9999 -9999 -9999 -9999 -9999 -9999 -9999 -9999 -9999 -9999 1294 1270 1262 1255 1300 1241 1223 1240 1230 1248 1239 1197 1180 1171 1153 1158 1148 1134 1155 1201 1385 1240 1212 1191 1178 1142 1118 1093 1078 1074 1081 1067 1081 1111 1123 1128 1123 1156 1164 1171 1164 1165 1175 1180 1211 1187 1192 1197 1230 1363 1213 1132 1100 1079 1067 1044 1027 1010 995 1010 1043 1135 1546 1557 1207 1284 1140 1018 970 958 1044 918 906 901 904 896 883 872 871 871 869 864 870 880 882 880 901 921 949 993 1019 1232 1573 1413 969 1021 869 840 816 800 793 788 775 767 763 755 753 746 748 741 734 735 731 743 739 729 724 715 710 711 698 706 710 704 694 690 682 681 657 661 657 646 648 640 625 612 604 606 603 589 590 569 579 578 570 566 555 549 550 547 545 541 538 519 511 507 492 476 468 461 454 456 416 401 393 408 389 -9999 -9999 -9999 -9999 -9999 -9999 -9999 -9999 -9999 -9999 -9999 -9999 -9999 -9999 -9999 -9999 -9999 -9999 -9999 -9999 -9999 -9999 -9999 -9999 -9999 -9999 -9999 -9999 -9999 -9999 -9999 -9999 -9999 -9999 -9999 -9999 -9999 -9999 -9999 -9999 -9999 -9999 -9999 -9999 -9999 -9999 -9999 -9999 -9999 -9999 -9999 -9999 -9999 -9999 -9999 -9999 -9999 -9999 -9999 -9999 -9999 -9999 -9999 -9999 -9999 -9999 -9999 -9999
-9999 -9999 -9999 -9999 -9999 -9999 -9999 -9999 -9999 -9999 -9999 -9999 -9999 -9999 -9999 -9999 -9999 -9999 -9999 -9999 -9999 -9999 -9999 -9999 -9999 -9999 -9999 -9999 -9999 -9999 -9999 -9999 -9999 -9999 -9999 -9999 -9999 -9999 -9999 -9999 -9999 -9999 -9999 -9999 -9999 -9999 -9999 -9999 -9999 -9999 1628 1655 1784 1847 1971 2034 2065 -9999 -9999 -9999 -9999 -9999 -9999 -9999 -9999 -9999 -9999 -9999 -9999 -9999 -9999 -9999 -9999 -9999 -9999 -9999 -9999 -9999 -9999 -9999 -9999 -9999 -9999 -9999 -9999 -9999 -9999 -9999 -9999 -9999 -9999 -9999 -9999 -9999 -9999 -9999 -9999 -9999 -9999 -9999 -9999 -9999 -9999 -9999 -9999 -9999 -9999 -9999 -9999 -9999 -9999 1297 1291 1272 1256 1242 1254 1233 1211 1267 1212 1235 1275 1205 1178 1162 1147 1138 1130 1133 1154 1170 1167 1189 1329 1196 1166 1143 1129 1132 1116 1094 1063 1054 1077 1095 1098 1126 1155 1148 1146 1151 1150 1150 1155 1163 1166 1170 1174 1175 1170 1170 1149 1152 1226 1113 1153 1053 1022 1004 992 1022 1075 1233 1821 1729 1377 1065 1261 1155 984 981 957 929 918 944 895 888 884 883 873 881 873 868 874 883 886 888 897 914 956 1008 1057 1146 1362 1233 959 910 878 843 818 795 786 779 772 766 763 756 757 748 740 739 734 732 725 731 729 722 725 720 715 707 705 711 691 695 671 676 666 668 655 654 668 660 646 636 631 614 618 616 612 591 581 562 568 562 569 555 553 539 543 534 540 532 522 524 516 497 493 469 459 434 436 433 406 389 -9999 382 378 -9999 -9999 -9999 -9999 -9999 -9999 -9999 -9999 -9999 -9999 -9999 -9999 -9999 -9999 -9999 -9999 -9999 -9999 -9999 -9999 -9999 -9999 -9999 -9999 -9999 -9999 -9999 -9999 -9999 -9999 -9999 -9999 -9999 -9999 -9999 -9999 -9999 -9999 -9999 -9999 -9999 -9999 -9999 -9999 -9999 -9999 -9999 -9999 -9999 -9999 -9999 -9999 -9999 -9999 -9999 -9999 -9999 -9999 -9999 -9999 -9999 -9999 -9999 -9999 -9999 -9999 -9999 -9999
-9999 -9999 -9999 -9999 -9999 -9999 -9999 -9999 -9999 -9999 -9999 -9999 -9999 -9999 -9999 -9999 -9999 -9999 -9999 -9999 -9999 -9999 -9999 -9999 -9999 -9999 -9999 -9999 -9999 -9999 -9999 -9999 -9999 -9999 -9999 -9999 -9999 -9999 -9999 -9999 -9999 -9999 -9999 -9999 -9999 -9999 -9999 -9999 -9999 -9999 -9999 1739 1784 1859 2004 2008 2063 -9999 -9999 -9999 -9999 -9999 -9999 -9999 -9999 -9999 -9999 -9999 -9999 -9999 -9999 -9999 -9999 -9999 -9999 -9999 -9999 -9999 -9999 -9999 -9999 -9999 -9999 -9999 -9999 -9999 -9999 -9999 -9999 -9999 -9999 -9999 -9999 -9999 -9999 -9999 -9999 -9999 -9999 -9999 -9999 -9999 -9999 -9999 -9999 -9999 -9999 -9999 -9999 -9999 -9999 -9999 1302 1287 1257 1233 1244 1240 1218 1205 1200 1224 1214 1197 1183 1173 1172 1156 1129 1118 1127 1140 1137 1156 1207 1222 1161 1154 1150 1130 1106 1101 1066 1051 1062 1074 1111 1130 1143 1144 1126 1127 1131 1135 1134 1139 1149 1152 1159 1159 1156 1164 1220 1418 1350 1189 1142 1063 1021 990 982 1017 1069 1254 1864 1778 1658 1360 1044 1124 994 974 992 937 926 912 901 895 896 889 878 892 878 879 875 883 897 893 914 916 953 1146 1315 1245 1115 983 935 896 870 841 815 803 794 782 779 773 772 771 760 755 742 733 729 726 720 721 723 717 715 720 715 714 713 717 697 690 679 681 660 654 639 645 656 654 636 634 629 629 616 604 601 589 573 565 551 558 553 552 542 534 535 526 528 515 516 511 512 507 474 463 451 423 420 426 420 386 -9999 -9999 -9999 -9999 -9999 -9999 -9999 -9999 -9999 -9999 -9999 -9999 -9999 -9999 -9999 -9999 -9999 -9999 -9999 -9999 -9999 -9999 -9999 -9999 -9999 -9999 -9999 -9999 -9999 -9999 -9999 -9999 -9999 -9999 -9999 -9999 -9999 -9999 -9999 -9999 -9999 -9999 -9999 -9999 -9999 -9999 -9999 -9999 -9999 -9999 -9999 -9999 -9999 -9999 -9999 -9999 -9999 -9999 -9999 -9999 -9999 -9999 -9999 -9999 -9999 -9999 -9999 -9999 -9999 -9999 -9999
